# .PCD v0.7 - Point Cloud Data file format
VERSION 0.7
FIELDS x y z
SIZE 4 4 4
TYPE F F F
COUNT 1 1 1
WIDTH 433
HEIGHT 1
VIEWPOINT 0 0 0 1 0 0 0
POINTS 433
DATA ascii
-0.073436983 -0.063492388 0.87400001
-0.081086665 -0.057372637 0.87400001
-0.076496854 -0.059667543 0.87400001
-0.087206416 -0.05201786 0.87400001
-0.10403572 -0.036718491 0.87400001
-0.052399948 -0.077413157 0.87809092
-0.067302182 -0.071298562 0.87779999
-0.062477682 -0.072209865 0.87766665
-0.057384409 -0.072044536 0.87736356
-0.071130395 -0.066524833 0.87700003
-0.067582913 -0.067582525 0.87744439
-0.062989801 -0.067600034 0.87766665
-0.05759174 -0.067574255 0.87733322
-0.075224236 -0.062175136 0.87699997
-0.071715228 -0.062723413 0.87699991
-0.067409828 -0.062649354 0.87719995
-0.062574632 -0.062024839 0.8779999
-0.057287108 -0.062443715 0.87771422
-0.052246299 -0.062232614 0.87783331
-0.048431378 -0.061500315 0.87833339
-0.082132585 -0.055266786 0.87699997
-0.077417366 -0.057240598 0.87699991
-0.072153859 -0.057569567 0.87699991
-0.067687847 -0.057360228 0.87699991
-0.062448453 -0.057001688 0.87790912
-0.057174135 -0.056714274 0.87800008
-0.047699377 -0.056931514 0.87900007
-0.044621993 -0.056931511 0.87900001
-0.086482286 -0.051172953 0.87700003
-0.082900174 -0.052196406 0.87699991
-0.077541314 -0.052206617 0.87716657
-0.072227769 -0.052249309 0.87788892
-0.067548297 -0.05219641 0.87699991
-0.062693104 -0.052090853 0.87779999
-0.057383135 -0.052357294 0.87736356
-0.052288603 -0.052288216 0.8785556
-0.048212275 -0.052828342 0.87900001
-0.091087848 -0.04656738 0.87700003
-0.087505743 -0.047590844 0.87699991
-0.082900174 -0.047590841 0.87699991
-0.077527024 -0.047590841 0.87699991
-0.072190039 -0.047614183 0.87744439
-0.067565791 -0.047602516 0.87722212
-0.062663354 -0.047458328 0.87739992
-0.057383135 -0.047750141 0.87736356
-0.052315444 -0.047699377 0.87900007
-0.049238067 -0.047699377 0.87900001
-0.095693417 -0.041961819 0.87700003
-0.09220507 -0.043029238 0.87788892
-0.087505743 -0.042985283 0.87699991
-0.082900174 -0.042985279 0.87699991
-0.077527024 -0.042985279 0.87699991
-0.072412461 -0.04249705 0.87845457
-0.067661285 -0.04249705 0.87845457
-0.062094409 -0.042816158 0.87838459
-0.05731618 -0.043083306 0.87900007
-0.052123107 -0.04289097 0.87900007
-0.047699377 -0.040005926 0.87900001
-0.10188474 -0.036863584 0.87744439
-0.097003423 -0.037454106 0.87746149
-0.092146613 -0.037626125 0.87733322
-0.08750575 -0.037612122 0.87699991
-0.082915641 -0.037618831 0.87716657
-0.0776034 -0.037648443 0.87787497
-0.073087752 -0.03846724 0.87900001
-0.067189448 -0.037954345 0.87900001
-0.062442087 -0.037525821 0.87859994
-0.058470201 -0.037697896 0.87900001
-0.051161427 -0.037313223 0.87900001
-0.047699377 -0.036928553 0.87900007
-0.043467976 -0.036928549 0.87900001
-0.10695147 -0.031727228 0.87699991
-0.10285763 -0.03223896 0.87699991
-0.097575493 -0.032269299 0.87783331
-0.09220545 -0.03227086 0.87788892
-0.087595224 -0.03227086 0.87788892
-0.082426265 -0.032131858 0.87790912
-0.07778772 -0.032960918 0.87871438
-0.064624965 -0.033081826 0.87900001
-0.050776754 -0.033081826 0.87900001
-0.047699377 -0.033851169 0.87900001
0 -0.033851169 0.87900001
-0.10749081 -0.027640007 0.87722218
-0.10291015 -0.027646618 0.87744445
-0.097593874 -0.027664902 0.87800002
-0.092275478 -0.027682409 0.8785556
-0.087661743 -0.027682016 0.8785556
-0.082319885 -0.02769641 0.87900001
-0.10775967 -0.022501722 0.87827277
-0.10246133 -0.022153629 0.87886655
-0.097046703 -0.022691004 0.87883329
-0.092423387 -0.022510635 0.87863636
-0.087791726 -0.022506498 0.87845457
-0.082781494 -0.023234211 0.87900007
-0.10748193 -0.017220719 0.87840003
-0.10232285 -0.016925585 0.87900001
-0.09642455 -0.017438481 0.87900001
-0.091956496 -0.017262459 0.8787778
-0.087153651 -0.017562017 0.87785715
-0.083666898 -0.01722632 0.8786
-0.076934479 -0.018464275 0.87900001
-0.11078564 -0.012309517 0.87900001
-0.10770828 -0.012309517 0.87900007
-0.10232285 -0.012309517 0.87900001
-0.096680999 -0.01179662 0.87900001
-0.092321381 -0.012309518 0.87900007
-0.087705307 -0.012089704 0.87900007
-0.083345681 -0.012053068 0.87900001
-0.11232435 -0.0075011114 0.87900007
-0.10770828 -0.0076934481 0.87900007
-0.10232285 -0.0076934476 0.87900001
-0.096937448 -0.0076934481 0.87900007
-0.092321381 -0.0076934481 0.87900007
-0.087705307 -0.0076934481 0.87900007
-0.08308924 -0.0081330733 0.87900007
-0.11232433 -0.0046160687 0.87900001
-0.10770827 -0.0046160687 0.87900001
-0.10155351 -0.0030773792 0.87900001
-0.096889198 -0.0030754341 0.8785556
-0.092297651 -0.0030762122 0.87877786
-0.087961756 -0.0035902758 0.87900001
-0.084627926 -0.0046160687 0.87900001
-0.095706493 0.0018464274 0.87900001
-0.092461258 0.0020982129 0.87900007
-0.088013038 0.0012309516 0.87900001
0 -0.13138379 0.88300002
-0.00656919 -0.12636028 0.88300002
-0.0028955459 -0.12795477 0.88199997
0.0023153867 -0.1280897 0.88160002
0.0077237897 -0.12613578 0.88233328
-0.011438118 -0.1218005 0.88300002
-0.0077191219 -0.12195715 0.88188887
0.011428315 -0.12169057 0.88219994
0.015834587 -0.11702049 0.88250005
-0.064919047 -0.074193195 0.88300002
0.0023132858 -0.037012573 0.88099986
0.0077109537 -0.03701257 0.88099998
0.012337524 -0.03701257 0.88099998
0.0025235845 -0.032245804 0.88099992
0.0077109528 -0.032386001 0.88099998
0.012337524 -0.032386001 0.88099998
-0.11592686 -0.026276758 0.88300002
0.0023132858 -0.027759427 0.88099986
0.0077140648 -0.027773043 0.88144445
0.012344139 -0.027772654 0.88144445
0.016972266 -0.027773043 0.88144445
-0.12210964 -0.02009399 0.88300008
0.0023132858 -0.022361761 0.8809998
-0.11744338 -0.016998718 0.88277775
-0.006203772 -0.13027921 0.88599998
-0.003101886 -0.13131317 0.88599998
0.0023281651 -0.13197982 0.88699996
0.0062177763 -0.1305733 0.88800001
-0.0085398145 -0.12732175 0.88699996
0.0077547152 -0.12821129 0.88599998
0.010856601 -0.12562639 0.88599998
0.013461345 -0.12271006 0.88733333
0.01550943 -0.12097355 0.88599998
0.017856851 -0.11722748 0.88699996
0.028692445 -0.10236224 0.88599998
0.031088883 -0.10103887 0.88800001
0.029467916 -0.09770941 0.88599998
0.031018861 -0.09770941 0.88599998
0.027916972 -0.093056582 0.88600004
0.032413132 -0.092967749 0.88700002
0.036928546 -0.092478208 0.88640004
0.040324517 -0.091505639 0.88599998
0.017835844 -0.085301869 0.88599998
0.022906233 -0.087210707 0.88599998
0.02791697 -0.087628283 0.88599998
0.031988196 -0.088209882 0.88600004
0.035671689 -0.089954697 0.88599998
0.046528287 -0.086852811 0.88599998
0.013344412 -0.081926204 0.88639992
0.01707671 -0.082281679 0.88688892
0.022023389 -0.082355067 0.88600004
0.027141504 -0.083750926 0.88599998
0.049630176 -0.080649033 0.88599998
0.051181119 -0.080649033 0.88599998
0.0083750915 -0.076926768 0.88599998
0.012424271 -0.077644013 0.88711113
0.016889263 -0.077850863 0.88725001
0.020162258 -0.078322619 0.88599998
0.049630176 -0.079098091 0.88599998
0.052016109 -0.077632926 0.88699996
-0.002067924 -0.071860358 0.88599998
0.0042650932 -0.072506592 0.88599998
0.0077547142 -0.07289432 0.88600004
0.012411044 -0.072912991 0.88622224
0.01550943 -0.073669791 0.88599998
0.049630176 -0.073669791 0.88599998
0.05337695 -0.072617039 0.88640004
0.055959985 -0.071504422 0.88800001
-0.010856601 -0.065139607 0.88599998
-0.0073669795 -0.065527342 0.88599998
-0.0029628009 -0.067308635 0.88672727
0.0026246724 -0.06704846 0.88599998
0.0074100601 -0.068069167 0.88600004
0.053507537 -0.069016963 0.88599998
0.057290997 -0.067311175 0.88672727
0.061727531 -0.065759979 0.88599998
-0.011787167 -0.061727535 0.88599998
-0.0077578267 -0.062068447 0.88644445
-0.003103442 -0.062085178 0.88666666
0.001033962 -0.063119531 0.8866666
0.0077547152 -0.063588664 0.88599998
0.05790187 -0.062296208 0.88599998
0.062037721 -0.062037721 0.88600004
0.065286651 -0.06140054 0.88800001
-0.02093773 -0.055833947 0.88599998
-0.017060371 -0.056609418 0.88599998
-0.012418825 -0.057442069 0.88688892
-0.0077722212 -0.057514429 0.88800001
-0.0031061652 -0.057458017 0.88711113
0 -0.058935832 0.88599998
0.044977348 -0.055833947 0.88599998
0.048854705 -0.056609418 0.88599998
0.053352438 -0.056764513 0.88599998
0.057384886 -0.057578754 0.88600004
0.062037721 -0.05738489 0.88600004
0.065286651 -0.057514429 0.88800001
-0.021270076 -0.052510496 0.88600004
-0.017072819 -0.05277174 0.88666672
-0.012425439 -0.052811425 0.88733333
-0.0077671632 -0.0528122 0.88733339
-0.003101886 -0.053507533 0.88599998
0.043736596 -0.052421875 0.88599998
0.047942303 -0.052426312 0.88666666
0.052771743 -0.05277057 0.88666666
0.057384886 -0.052732058 0.88600004
0.061566841 -0.053288136 0.88666672
0.065286651 -0.054405544 0.88800001
-0.031018861 -0.046528287 0.88599998
-0.027529238 -0.046916023 0.88599998
-0.022277178 -0.047938231 0.88600004
-0.017068541 -0.048104122 0.88644451
-0.01241299 -0.048103739 0.88644445
-0.0082716951 -0.048596215 0.88599998
-0.001550943 -0.049630176 0.88599998
0.043684896 -0.047820743 0.88599998
0.047844667 -0.048155554 0.88739997
0.052332953 -0.048187766 0.88800001
0.057061926 -0.049297582 0.88699996
-0.031794328 -0.041875463 0.88599998
-0.027761877 -0.042185646 0.88600004
-0.021713203 -0.044460367 0.88599998
-0.017060373 -0.044977348 0.88599998
-0.012407544 -0.044977348 0.88599998
-0.0093056578 -0.044977348 0.88599998
0.038773574 -0.043426406 0.88599998
0.042479519 -0.042717583 0.88615382
0.047514759 -0.042380951 0.88661534
-0.035671689 -0.03644716 0.88599998
-0.0325698 -0.037222628 0.88600004
-0.028433954 -0.037739608 0.88599998
0.034120746 -0.035671689 0.88599998
0.037232354 -0.037231576 0.88622224
0.041512858 -0.037516214 0.88771433
0.047021933 -0.038472492 0.88800001
-0.040324517 -0.031018861 0.88599998
-0.037038825 -0.032384686 0.88625008
-0.0325698 -0.0325698 0.88600004
-0.029467916 -0.032569803 0.88599998
0.032841131 -0.032064494 0.88633341
0.036761086 -0.033135798 0.88733333
0.040415544 -0.03419777 0.88800001
-0.040324517 -0.028692445 0.88599998
-0.037222628 -0.027916972 0.88600004
-0.03308678 -0.028433954 0.88599998
-0.029467916 -0.028692445 0.88599998
0.031830218 -0.028725706 0.88699996
-0.055833947 -0.020162258 0.88599998
-0.052732062 -0.020782635 0.88599998
-0.037222631 -0.024815088 0.88599998
-0.056609418 -0.017060371 0.88599998
-0.052732062 -0.017060371 0.88600004
-0.048596215 -0.017318862 0.88599998
-0.065139607 -0.010856601 0.88599998
-0.062037721 -0.010856601 0.88599998
-0.057191018 -0.012213675 0.88600004
-0.052953623 -0.01285067 0.88600004
-0.0081424508 -0.011632073 0.88599998
-0.066690542 -0.0077547142 0.88600004
-0.062037721 -0.0077547142 0.88600004
-0.058160361 -0.0077547147 0.88599998
-0.011476979 -0.0080649033 0.88599998
-0.0082716951 -0.0080132047 0.88599998
-0.067281261 -0.0032444722 0.88636363
-0.062069613 -0.0031038309 0.88644451
-0.058935832 -0.003101886 0.88599998
-0.065915078 0 0.88599998
-0.063588664 0 0.88599998
-0.085301869 0.0093056578 0.88599998
-0.081978418 0.0081978412 0.88600004
-0.07754714 0.0085301856 0.88599998
-0.0037285653 0.0071476423 0.88759995
0.001550943 0.0062107742 0.88699996
-0.091505639 0.013958487 0.88599998
-0.087025136 0.012752197 0.88600004
-0.082199976 0.012407543 0.88600004
-0.078064136 0.011890563 0.88599998
-0.0046633324 0.01165833 0.88800001
-0.09770941 0.018611316 0.88599998
-0.092798091 0.017577352 0.88599998
-0.087628283 0.017060371 0.88599998
-0.082587712 0.015897166 0.88599998
-0.079098091 0.01550943 0.88599998
-0.13225509 0.022495674 0.88625008
-0.12821129 0.024298107 0.88599998
-0.10546413 0.024039615 0.88599998
-0.10222124 0.022700163 0.88600004
-0.09781941 0.022515515 0.88700008
-0.093074374 0.022493048 0.88616663
-0.088403739 0.02248867 0.88599998
-0.017235072 0.022049647 0.88699996
-0.12758052 0.027948484 0.88700002
-0.11166789 0.029467916 0.88599998
-0.10682119 0.028110839 0.88600004
-0.10238752 0.027923584 0.88622224
-0.097831562 0.027950816 0.88711113
-0.093277141 0.027730543 0.88625008
-0.088713944 0.026986409 0.88599998
-0.12640186 0.031018861 0.88599998
-0.12097355 0.034120746 0.88599998
-0.11699291 0.033825964 0.88639992
-0.11230063 0.032449815 0.88654554
-0.10706913 0.032586917 0.88644451
-0.10238829 0.032577969 0.88622224
-0.097903274 0.032375932 0.88600004
-0.094607525 0.031018861 0.88599998
-0.11736053 0.035752211 0.88800001
-0.11172566 0.037112352 0.88800001
-0.10706913 0.03724052 0.88644451
-0.10280536 0.037001066 0.88600004
-0.11108017 0.042721827 0.88750005
-0.10715606 0.042439435 0.88600004
-0.10352544 0.041487724 0.88599998
-0.11089242 0.048079234 0.88599998
-0.10727357 0.048596215 0.88599998
-0.10313771 0.049630176 0.88599998
-0.11011695 0.051181119 0.88599998
-0.10709443 0.051219631 0.8866666
-0.10222658 0.052568387 0.88650006
-0.09770941 0.052732062 0.88600004
-0.09726537 0.056911673 0.8866666
-0.054405544 0.055959985 0.88800001
-0.092411526 0.062126119 0.88725001
-0.090675898 0.065804802 0.88800001
-0.086837217 0.067351922 0.88727278
-0.063732207 0.065286651 0.88800001
-0.086012572 0.072022572 0.88800001
-0.08230307 0.072986908 0.88711113
-0.077722207 0.072281651 0.88800001
-0.074095167 0.072022572 0.88800001
0.0031182242 -0.13356431 0.89066666
0.012474063 -0.12680739 0.89066666
0.014021505 -0.12463561 0.88999999
0.017937373 -0.11931583 0.89100003
0.031228922 -0.10305544 0.89200002
0.033520907 -0.097445674 0.89066666
0.03637889 -0.095626324 0.89066666
0.040597599 -0.093686759 0.89200002
0.053569973 -0.078013957 0.89133334
0.054528076 -0.074781366 0.88999999
0.057285987 -0.072486453 0.89049995
0.060759854 -0.068549581 0.88999999
0.066522501 -0.062364485 0.89066666
0.066991635 -0.057643965 0.89000005
0.063096777 -0.052191161 0.88999999
0.066287935 -0.053810373 0.89100003
0.053904898 -0.04704994 0.88999999
0.057358284 -0.047070943 0.89040005
0.060759854 -0.049854241 0.88999999
0.053749103 -0.042843491 0.88999999
0.056086019 -0.04362246 0.88999999
0.04362246 -0.036611706 0.88999999
0.046426762 -0.036455911 0.88999999
0.038458485 -0.031701557 0.89066666
0.041331936 -0.03275273 0.89099997
0.033355426 -0.027431738 0.89039993
0.036406901 -0.029124819 0.89133334
0.031726062 -0.024443984 0.89133334
-0.0031193912 0.0085792011 0.89100003
-0.016395185 0.024983138 0.89200002
-0.012992211 0.024426477 0.89066666
-0.0093686767 0.024983138 0.89200002
-0.020253284 0.028043009 0.88999999
-0.018737353 0.027325306 0.89200002
-0.11697716 0.038213417 0.89099997
-0.11372998 0.038948625 0.88999999
-0.11385778 0.041332807 0.89100003
-0.10617834 0.053089168 0.89200002
-0.052970134 0.054528076 0.88999999
-0.10126643 0.056086019 0.88999999
-0.056864992 0.058422938 0.88999999
-0.060759854 0.062317804 0.88999999
-0.059201907 0.060759854 0.88999999
-0.090563871 0.068703629 0.89200002
-0.066286184 0.068626605 0.89100003
-0.063166797 0.066286184 0.89100003
-0.087374456 0.072814971 0.89133334
-0.077897251 0.074781366 0.89000005
-0.072203621 0.072872818 0.8911429
-0.067040652 0.070160039 0.89066666
-0.081792109 0.076339304 0.88999999
-0.07963375 0.076510862 0.89200002
0.054834414 -0.078334875 0.89499998
0.059100967 -0.07322225 0.89633328
0.063521273 -0.068228364 0.89600003
0.06652192 -0.06652192 0.89766663
0.068773203 -0.063270509 0.898
0.063521273 -0.050973684 0.89600003
0.061101198 -0.048567623 0.89499998
0.044014573 -0.033796027 0.898
0.034544367 -0.025123177 0.89700001
0.03805631 -0.028246943 0.89649999
0.040825162 -0.029833771 0.89700001
0.032974169 -0.023552978 0.89700001
-0.021150418 0.029767253 0.89499998
-0.01694344 0.027925726 0.8962
-0.013009717 0.028489888 0.89699996
-0.10496873 0.054834414 0.89499998
-0.098701946 0.059534505 0.89499998
-0.055803314 0.059734061 0.898
-0.053464938 0.056610007 0.89833331
-0.061101198 0.064234599 0.89499998
-0.058489107 0.062577926 0.89819992
-0.062482785 0.067592055 0.898
-0.070658937 0.073799334 0.89700001
-0.067985483 0.072703078 0.89799994
-0.083521172 0.078030728 0.89599997
-0.077665895 0.077667646 0.89633328
-0.073096506 0.076240405 0.898
