# .PCD v0.7 - Point Cloud Data file format
VERSION 0.7
FIELDS x y z
SIZE 4 4 4
TYPE F F F
COUNT 1 1 1
WIDTH 1093
HEIGHT 1
VIEWPOINT 0 0 0 1 0 0 0
POINTS 1093
DATA ascii
0 0 0
-0.1575835 -0.21725106 0.87400001
-0.15299369 -0.21725106 0.87400001
-0.14763892 -0.21725106 0.87399989
-0.14228415 -0.21725106 0.87400001
-0.13769434 -0.21725106 0.87400001
-0.13233957 -0.21725106 0.87399989
-0.12698478 -0.21725106 0.87400001
-0.12239497 -0.21725106 0.87400001
-0.11780514 -0.21725106 0.87400001
-0.11245037 -0.21725106 0.87399989
-0.10684061 -0.21725106 0.87400001
-0.073436983 -0.21725106 0.87400001
-0.15758352 -0.21342623 0.87400001
-0.15299369 -0.21266127 0.87400001
-0.14763893 -0.21266125 0.87399989
-0.14228415 -0.21266127 0.87400001
-0.13769434 -0.21266127 0.87400001
-0.13279854 -0.21281426 0.87399995
-0.12698478 -0.21266127 0.87400001
-0.12239497 -0.21266127 0.87400001
-0.11780514 -0.21266127 0.87400001
-0.11321534 -0.21266125 0.87400001
-0.10556566 -0.21189629 0.87400001
-0.097151004 -0.21189629 0.87400001
-0.093326151 -0.21342623 0.87400001
-0.16064338 -0.20501156 0.87400001
-0.15720104 -0.20539404 0.87400001
-0.15280245 -0.20673276 0.87400001
-0.14878638 -0.20807146 0.87400001
-0.14304912 -0.20960139 0.87400001
-0.1361644 -0.20883641 0.87400001
-0.13310452 -0.20730646 0.87400001
-0.12606682 -0.20807144 0.87399995
-0.12201249 -0.20692399 0.87400001
-0.11780513 -0.20730649 0.87399989
-0.11279809 -0.2066806 0.87399995
-0.10652187 -0.20673275 0.87400001
-0.10250578 -0.20501156 0.87400001
-0.096998014 -0.20837744 0.87399995
-0.091796219 -0.20960139 0.87400001
-0.16064338 -0.20195168 0.87400001
-0.1575835 -0.20195171 0.87400001
-0.15452364 -0.20271665 0.87400001
-0.14993383 -0.20348163 0.87400001
-0.13310452 -0.20195168 0.87400001
-0.12621981 -0.20271665 0.87400001
-0.12188499 -0.20246166 0.87400001
-0.11780515 -0.20286965 0.87399995
-0.11214439 -0.20225771 0.87399995
-0.10678961 -0.20225768 0.87399995
-0.10403572 -0.20348163 0.87400001
-0.16125537 -0.19766787 0.87399995
-0.1580935 -0.19787186 0.87400001
-0.13310452 -0.19736189 0.87400001
-0.12698478 -0.19583194 0.87400001
-0.14075421 -0.19430201 0.87400001
-0.1361644 -0.19353704 0.87400001
-0.13233957 -0.19277208 0.87399989
-0.13463446 -0.1897122 0.87400001
-0.16196238 -0.21799676 0.87699991
-0.10797492 -0.21799678 0.87700003
-0.10285763 -0.21799676 0.87699991
-0.097484469 -0.21799676 0.87699991
-0.092111312 -0.21799676 0.87699991
-0.087505743 -0.21799675 0.87699991
-0.082900174 -0.21799676 0.87699991
-0.077527024 -0.21799679 0.87699991
-0.071961962 -0.21799678 0.87699991
-0.06754829 -0.21799676 0.87699991
-0.062942728 -0.21799676 0.87699991
-0.057569563 -0.21799679 0.87699991
-0.052357934 -0.21752764 0.87736362
-0.047590841 -0.21799678 0.87699991
-0.042985279 -0.21799675 0.87699991
-0.037647881 -0.21744025 0.87785709
-0.032961421 -0.21732333 0.87871438
-0.02753998 -0.21737884 0.87845457
-0.02245063 -0.21743768 0.87846655
-0.017117921 -0.21714757 0.87900007
-0.012924992 -0.21757071 0.87900001
0.0025637047 -0.2167294 0.87877786
0.0076911133 -0.21689998 0.8787778
0.012306016 -0.21689996 0.8787778
0.016412688 -0.21644233 0.87900001
-0.16210155 -0.21280479 0.87774998
-0.15768579 -0.21097876 0.87699991
-0.15351886 -0.21032083 0.87699997
-0.14584291 -0.21032083 0.87699997
-0.14123733 -0.21032083 0.87699997
-0.13765524 -0.21032083 0.87700003
-0.13087481 -0.21147221 0.87699997
-0.12895584 -0.21032083 0.87699997
-0.12281509 -0.21032083 0.87699997
-0.11114764 -0.21216305 0.87699997
-0.10797492 -0.21287948 0.87699991
-0.10285762 -0.21262361 0.87699991
-0.098060168 -0.21281549 0.87699991
-0.092111312 -0.21253832 0.87699991
-0.087505758 -0.21262364 0.87699991
-0.082900174 -0.21262361 0.87699991
-0.077527024 -0.21262366 0.87699991
-0.072153859 -0.21262361 0.87699991
-0.067548282 -0.21262364 0.87699991
-0.062942736 -0.21262364 0.87699991
-0.057569563 -0.21262366 0.87699991
-0.052102756 -0.21240428 0.87799996
-0.047590841 -0.21262364 0.87699991
-0.042985279 -0.21262364 0.87699991
-0.037820768 -0.21227776 0.87776917
-0.032504819 -0.21214682 0.87900007
-0.027676573 -0.21217813 0.87833333
-0.023059338 -0.21215796 0.87825
-0.017848799 -0.21203141 0.87900001
-0.006924103 -0.21080047 0.87900001
-0.0027696411 -0.21141596 0.87900001
0.002366676 -0.21253821 0.87884617
0.0076934481 -0.21233919 0.87900007
0.012309517 -0.21336496 0.87900001
0.016156241 -0.21387786 0.87900001
-0.1625984 -0.207408 0.87766665
-0.15843146 -0.20817156 0.87699997
-0.15351886 -0.20801803 0.87699997
-0.14715879 -0.20681183 0.87699991
-0.14277254 -0.20725046 0.87699991
-0.13746916 -0.20711088 0.87699991
-0.13125861 -0.20725046 0.87699991
-0.12793238 -0.20699458 0.87699991
-0.12435027 -0.20725045 0.87699997
-0.11206876 -0.20878564 0.87700003
-0.10899838 -0.20801803 0.87699997
-0.10285763 -0.20801805 0.87699991
-0.097569756 -0.20690931 0.87699991
-0.092111312 -0.20725046 0.87699991
-0.08750575 -0.20725045 0.87699991
-0.082629897 -0.20719075 0.87739992
-0.077350132 -0.20747562 0.87736362
-0.072153859 -0.20725046 0.87699991
-0.06754829 -0.20725046 0.87699991
-0.062942736 -0.20725046 0.87699991
-0.057569567 -0.20725043 0.87699991
-0.052236479 -0.20740879 0.87766665
-0.047651138 -0.20751381 0.87811112
-0.042240441 -0.20736863 0.87749988
-0.036928549 -0.20772308 0.87900007
-0.032752108 -0.20750327 0.87900007
-0.027239783 -0.20736825 0.87842852
-0.022607531 -0.20732084 0.8786
-0.018079601 -0.20733842 0.87900001
-0.0026377535 -0.20750329 0.87900007
0.0025178557 -0.20786299 0.87900007
0.0061547584 -0.20849243 0.87900001
-0.16356 -0.20272189 0.87733322
-0.15505403 -0.20110969 0.87699997
-0.15217556 -0.20245296 0.87699991
-0.14737809 -0.20264485 0.87699991
-0.14277253 -0.20264485 0.87699991
-0.13739936 -0.20264484 0.87699991
-0.13125861 -0.20264487 0.87699991
-0.12803474 -0.20203081 0.87699997
-0.12307095 -0.202389 0.87699991
-0.11759543 -0.20141673 0.87699997
-0.11360395 -0.20110969 0.87699997
-0.107847 -0.20226109 0.87699997
-0.10266574 -0.20245296 0.87699991
-0.097484469 -0.20264484 0.87699991
-0.092111312 -0.20264485 0.87699991
-0.08750575 -0.20264485 0.87699991
-0.08294744 -0.20199104 0.8775
-0.07761354 -0.2024795 0.87730759
-0.072043896 -0.20216936 0.87736362
-0.06763757 -0.2021445 0.87816668
-0.062636144 -0.20208463 0.87885714
-0.057314873 -0.20235893 0.87814277
-0.052385986 -0.20247504 0.8775999
-0.047655959 -0.20261371 0.87820005
-0.042160094 -0.20249154 0.87899995
-0.036928549 -0.20233767 0.87900001
-0.032141518 -0.20293607 0.87900007
-0.027545393 -0.20246348 0.87863636
-0.023075251 -0.20250517 0.87881827
-0.006924103 -0.20464571 0.87900001
-0.0036928549 -0.20341475 0.87900001
0.0021981278 -0.2026674 0.87900007
0.008001186 -0.20095286 0.87900001
0.012617255 -0.20187607 0.87900001
0.01769493 -0.20002964 0.87900001
-0.16388138 -0.19765551 0.87699997
-0.15607749 -0.19752759 0.87699991
-0.15198368 -0.19803931 0.87699991
-0.1473781 -0.19803931 0.87699991
-0.14277254 -0.19803931 0.87699991
-0.13739936 -0.19803931 0.87699991
-0.13125861 -0.19803931 0.87699991
-0.12742065 -0.19823121 0.87699991
-0.12281508 -0.19803931 0.87699991
-0.1174419 -0.19803931 0.87699991
-0.11206876 -0.19803931 0.87699991
-0.10760617 -0.19753253 0.87816668
-0.10285763 -0.19803931 0.87699991
-0.097484469 -0.19803931 0.87699991
-0.092181034 -0.19742019 0.87766653
-0.087605529 -0.19749491 0.87799996
-0.082512207 -0.19677132 0.87881827
-0.077330373 -0.19767667 0.87766665
-0.072281063 -0.19736479 0.8785556
-0.067702346 -0.19695225 0.87900007
-0.062009186 -0.19695225 0.87900007
-0.056931511 -0.19695227 0.87900007
-0.052110955 -0.19726513 0.87790912
-0.047640491 -0.19726513 0.87790906
-0.042475883 -0.19711924 0.87869233
-0.036928553 -0.19695227 0.87900007
-0.032004744 -0.19695227 0.87900001
-0.02769641 -0.19695227 0.87900007
-0.022310998 -0.19772162 0.87900007
0.0084627923 -0.19849095 0.87900001
0.013078861 -0.19849095 0.87900001
0.015386896 -0.19849095 0.87900001
-0.16204087 -0.19311613 0.87788892
-0.15727474 -0.19290653 0.87739986
-0.15204172 -0.19273852 0.87733334
-0.1474344 -0.19273852 0.87733334
-0.1429121 -0.19245681 0.87699991
-0.13847399 -0.19235912 0.87699997
-0.13202621 -0.19036336 0.87700003
-0.12742066 -0.19266617 0.87699991
-0.1224755 -0.19260216 0.87771422
-0.11744703 -0.19352491 0.87799996
-0.11223915 -0.19372667 0.87833333
-0.10770828 -0.19387488 0.87900001
-0.10218894 -0.19347386 0.87845445
-0.097072087 -0.19307843 0.87807691
-0.092321381 -0.19233622 0.87900007
-0.087705307 -0.19233619 0.87900007
-0.082319885 -0.1923362 0.87900001
-0.076746292 -0.19255537 0.8786
-0.072438665 -0.19255535 0.8786
-0.067702338 -0.1923362 0.87900007
-0.061547581 -0.19195151 0.87900007
-0.057444409 -0.193362 0.87900001
-0.052315444 -0.19310553 0.87900001
-0.04750704 -0.19252855 0.87900007
-0.042523783 -0.19247605 0.87900007
-0.037431333 -0.19228797 0.8787778
-0.030773792 -0.19387488 0.87900001
-0.026927069 -0.19387488 0.87900001
-0.023080343 -0.19387488 0.87900001
-0.15617698 -0.18848947 0.87900001
-0.15233026 -0.18791246 0.87900007
-0.14764029 -0.18762483 0.8785556
-0.14284527 -0.18738715 0.87744445
-0.13739936 -0.18729304 0.87699991
-0.13212657 -0.18743423 0.87766659
-0.12772152 -0.18764421 0.87774998
-0.12232582 -0.18925881 0.87900001
-0.11847909 -0.18925881 0.87900001
-0.096168101 -0.18925881 0.87900001
-0.092834271 -0.18874592 0.87900001
-0.087705307 -0.18925881 0.87900001
-0.070779718 -0.18925881 0.87900001
-0.067702331 -0.18925881 0.87900001
-0.060778238 -0.18925881 0.87900001
-0.046160687 -0.18925881 0.87900001
-0.041159943 -0.18887414 0.87900001
-0.037697896 -0.18925881 0.87900001
-0.1600237 -0.18002668 0.87900001
-0.15670981 -0.1818984 0.87875009
-0.15233026 -0.18212487 0.87900007
-0.14780155 -0.18271334 0.87860012
-0.14240216 -0.18277848 0.8786667
-0.13696626 -0.18245231 0.87833333
-0.13294278 -0.18094988 0.87900001
-0.12786511 -0.18187311 0.87900007
-0.12232582 -0.18002668 0.87900001
-0.16181885 -0.17694931 0.87900001
-0.15700309 -0.17670846 0.87716657
-0.15202218 -0.17659181 0.87722218
-0.14723854 -0.17710494 0.87699991
-0.1429121 -0.17710494 0.87699991
-0.13764068 -0.17701432 0.87714279
-0.13229346 -0.17690496 0.87877786
-0.12761438 -0.17681509 0.87833333
-0.12253564 -0.17708917 0.87900007
-0.11725199 -0.17656304 0.8787778
-0.11232434 -0.17694931 0.87900007
-0.10792808 -0.17650966 0.87900007
-0.10263059 -0.17664155 0.87900007
-0.096937448 -0.17541061 0.87900001
-0.092629112 -0.17602608 0.87900001
-0.083858579 -0.17617996 0.87900001
-0.16250391 -0.17194536 0.87814283
-0.15735684 -0.17194112 0.87699991
-0.15198366 -0.1719411 0.87699991
-0.14737809 -0.17194113 0.87699991
-0.14277253 -0.17194115 0.87699991
-0.13739938 -0.17194112 0.87699991
-0.13202621 -0.17194112 0.87699991
-0.12748523 -0.17202748 0.87744445
-0.1224844 -0.17212144 0.87863636
-0.11722083 -0.17244753 0.87880009
-0.11232434 -0.17233323 0.87900007
-0.10770827 -0.17233324 0.87900007
-0.10266753 -0.17229207 0.87800008
-0.097355008 -0.17194507 0.87772727
-0.092204288 -0.17211656 0.87788892
-0.087705307 -0.17233321 0.87900007
-0.082918264 -0.17199129 0.87900007
-0.076934479 -0.17079455 0.87900001
-0.073087752 -0.17079455 0.87900001
-0.16240439 -0.16803926 0.87800002
-0.15735681 -0.16733553 0.87699991
-0.15198365 -0.16733554 0.87699991
-0.1473781 -0.16733553 0.87699991
-0.14288224 -0.16746275 0.87766665
-0.13742562 -0.16736734 0.87716657
-0.13202621 -0.16733554 0.87699991
-0.12771124 -0.16771716 0.87900007
-0.12232582 -0.16771717 0.87900001
-0.11694039 -0.16771719 0.87900007
-0.11232434 -0.16771719 0.87900007
-0.10770828 -0.16771716 0.87900007
-0.10264476 -0.16733433 0.87779999
-0.097294852 -0.16750947 0.87718177
-0.092250578 -0.16758917 0.87833333
-0.087705307 -0.1679095 0.87900007
-0.082781494 -0.1675633 0.87900007
-0.076714672 -0.16727754 0.87900007
-0.072318412 -0.16727754 0.87900007
-0.067702338 -0.16656315 0.87900001
-0.064112067 -0.16669138 0.87900001
-0.16125466 -0.16187014 0.87900001
-0.15735684 -0.16272998 0.87699991
-0.15198366 -0.16272998 0.87699991
-0.1473781 -0.16272998 0.87699991
-0.14315017 -0.16244034 0.87845457
-0.13739938 -0.16272998 0.87699991
-0.13202621 -0.16272998 0.87699991
-0.12749854 -0.16271947 0.8786
-0.12265556 -0.16244166 0.87900001
-0.11711491 -0.1623053 0.87853843
-0.11215395 -0.16285485 0.87766659
-0.10766713 -0.16226989 0.87866664
-0.10196926 -0.16244964 0.87785709
-0.097056955 -0.1625075 0.87881827
-0.092321381 -0.16310109 0.87900007
-0.086551286 -0.1615624 0.87900001
-0.082319893 -0.16200204 0.87900001
-0.076934479 -0.16233175 0.87900001
-0.072318412 -0.16233176 0.87900001
-0.068010077 -0.16263948 0.87900007
-0.063428201 -0.16224627 0.87900007
-0.056931518 -0.16134259 0.87900007
-0.053854134 -0.16079305 0.87900001
-0.049238067 -0.16233175 0.87900001
-0.1600237 -0.15694633 0.87900001
-0.15676779 -0.15753451 0.87800002
-0.15215698 -0.15753449 0.87800002
-0.14751843 -0.15750533 0.87783331
-0.14281543 -0.15711053 0.87819993
-0.13739936 -0.15735684 0.87699991
-0.1320262 -0.15735684 0.87699991
-0.12756021 -0.1571475 0.87699991
-0.12232583 -0.15694635 0.87900001
-0.11722083 -0.15721767 0.87880009
-0.11213324 -0.15744552 0.8775
-0.10759974 -0.15678646 0.87811112
-0.10242464 -0.15720616 0.87799984
-0.098091461 -0.157331 0.87900001
-0.080396526 -0.157331 0.87900001
-0.076934487 -0.15694635 0.87900007
-0.072281845 -0.15686737 0.8785556
-0.069241025 -0.15694633 0.87900001
-0.064112067 -0.15797213 0.87900001
-0.056316037 -0.15756181 0.87900001
-0.053854134 -0.15694633 0.87900001
-0.049238067 -0.15771568 0.87900001
-0.1600237 -0.15233028 0.87900001
-0.15694633 -0.15233026 0.87900007
-0.15229215 -0.15229174 0.8787778
-0.14748974 -0.15209958 0.87766665
-0.14248005 -0.15226756 0.87863636
-0.13693881 -0.15198365 0.87699997
-0.13202621 -0.15198366 0.87699991
-0.12745255 -0.15202178 0.87722212
-0.12227855 -0.15227221 0.87866664
-0.1169404 -0.15309961 0.87900001
-0.11232434 -0.15233026 0.87900007
-0.10751594 -0.15252259 0.87900007
-0.10263059 -0.15263802 0.87900007
-0.086679511 -0.15130448 0.87900001
-0.082319885 -0.15156093 0.87900001
-0.078473166 -0.15233026 0.87900001
-0.071549065 -0.15233028 0.87900001
-0.055392824 -0.15386896 0.87900001
-0.053854134 -0.15386896 0.87900001
-0.16040838 -0.14732954 0.87900001
-0.15682653 -0.14760293 0.87833333
-0.15229215 -0.14767724 0.87877786
-0.14756443 -0.1475652 0.87811112
-0.14230195 -0.14768589 0.87883335
-0.13670178 -0.1474524 0.87744439
-0.13205928 -0.14741504 0.87722218
-0.12758131 -0.14756405 0.87811112
-0.12225589 -0.14785407 0.87900007
-0.11716021 -0.14771421 0.87900007
-0.11232434 -0.14790654 0.87900007
-0.10770828 -0.14848354 0.87900001
-0.10386155 -0.14925289 0.87900001
-0.086166613 -0.1477142 0.87900001
-0.084627926 -0.1477142 0.87900001
-0.071549065 -0.14925289 0.87900001
-0.16617848 -0.14002074 0.87900001
-0.16217788 -0.14186719 0.87900007
-0.15676095 -0.14252238 0.87718177
-0.15228203 -0.14236102 0.87790906
-0.14739004 -0.14236102 0.87790906
-0.14196894 -0.14251922 0.87814277
-0.1369177 -0.14230166 0.87883335
-0.13230191 -0.14230193 0.87883335
-0.12848058 -0.14232878 0.87900007
-0.11847909 -0.14386748 0.87900001
-0.11181144 -0.14412393 0.87900001
-0.091090418 -0.14217491 0.87900001
-0.087705307 -0.14232878 0.87900001
-0.084627926 -0.14309813 0.87900001
-0.16200201 -0.13782261 0.87900007
-0.15729897 -0.13834086 0.87811112
-0.15206145 -0.13799691 0.87871438
-0.14805642 -0.13767289 0.87875003
-0.14316018 -0.1380343 0.87833333
-0.13637911 -0.13740374 0.8786667
-0.1323273 -0.13694337 0.87900007
-0.12771124 -0.13694337 0.87900007
-0.12463386 -0.13848205 0.87900001
-0.030843811 -0.21744888 0.88099998
-0.015421906 -0.21590668 0.88099998
-0.011566428 -0.21667776 0.88099998
-0.0077109518 -0.21744886 0.88099998
-0.0030843811 -0.21744886 0.88099998
0.00077109528 -0.21899106 0.88099998
0.017992223 -0.218477 0.88099998
0.022361761 -0.21744885 0.88099986
0.027759429 -0.21744886 0.88099998
0.032394558 -0.21750332 0.88122225
0.036153078 -0.21815221 0.88259995
-0.030843811 -0.21436448 0.88099998
-0.020819571 -0.21282229 0.88099998
-0.015807454 -0.21320784 0.88099998
-0.012343126 -0.2126098 0.88139999
-0.007931265 -0.21326293 0.88099998
-0.0034699286 -0.21397895 0.88099998
0.012337524 -0.21230823 0.88099998
0.017184408 -0.21238168 0.88099998
0.022361763 -0.21282232 0.88099986
0.027759429 -0.2128223 0.88099998
0.032385997 -0.2128223 0.88099998
0.036700107 -0.21247263 0.88274997
-0.030843811 -0.20896682 0.88099998
-0.029301619 -0.20896682 0.88099998
-0.020819571 -0.20973791 0.88099998
-0.016385773 -0.20723183 0.88099998
-0.01234007 -0.20725729 0.88118172
-0.0078651719 -0.20788726 0.88099992
-0.0035984449 -0.20768166 0.88099998
0.0015421906 -0.2056254 0.88099998
0.0080193905 -0.20711617 0.88099992
0.012337524 -0.20763491 0.88099992
0.016964095 -0.20742463 0.88099986
0.022361763 -0.2074246 0.8809998
0.027759431 -0.2074246 0.88099986
0.032386001 -0.20742463 0.88099986
0.036909815 -0.20724344 0.88219994
-0.032900065 -0.20099883 0.88099998
-0.029301619 -0.20048477 0.88099998
-0.020665351 -0.2023354 0.88099992
-0.016975766 -0.20217983 0.88166666
-0.012343748 -0.20212811 0.88144445
-0.0077109537 -0.20202696 0.88099998
-0.0028273494 -0.20151289 0.88099998
0.0024234424 -0.20180665 0.88099998
0.0073254053 -0.20279807 0.88099998
0.012029086 -0.20233539 0.88099992
0.016743783 -0.20246758 0.88099998
0.022361761 -0.20202696 0.88099986
0.027759427 -0.20202696 0.88099998
0.032386001 -0.20202696 0.88099998
0.037069757 -0.20233271 0.88233334
-0.064000905 -0.19740039 0.88099998
-0.03277155 -0.19740038 0.88099998
-0.022361761 -0.1958582 0.88099998
-0.016975766 -0.19754975 0.88166666
-0.012356196 -0.19769913 0.88233334
-0.0077284584 -0.19784853 0.88299996
-0.0030902165 -0.19774818 0.88255554
0.0023132858 -0.1975124 0.88149995
0.0074906396 -0.19695976 0.88099998
0.012117212 -0.19695976 0.88099998
0.017156869 -0.19720761 0.88099998
0.022361763 -0.19740038 0.88099986
0.027759429 -0.19740038 0.88099998
0.032385997 -0.19740038 0.88099998
0.037069757 -0.19769913 0.88233334
-0.165389 -0.19475713 0.88300002
-0.1638433 -0.1908929 0.88300002
-0.11643538 -0.19123162 0.88099998
-0.1125799 -0.19123162 0.88099998
-0.10780568 -0.19160737 0.88209093
-0.10332677 -0.19161716 0.88099998
-0.064000905 -0.19354492 0.88099998
-0.05680402 -0.19225974 0.88099998
-0.052434474 -0.19123162 0.88099998
-0.049350098 -0.19123162 0.88099998
-0.035470381 -0.19123162 0.88099998
-0.032552935 -0.19194932 0.88172728
-0.027932554 -0.19166926 0.88160002
-0.022262361 -0.19209501 0.8814286
-0.017128168 -0.19248992 0.88227272
-0.012365531 -0.1924386 0.88300008
-0.0077284579 -0.1924386 0.88300008
-0.0030913835 -0.19243862 0.88300008
0.0021353408 -0.19267066 0.88161534
0.0077109528 -0.19277382 0.88099998
0.012337524 -0.19277382 0.88099998
0.016971098 -0.19229132 0.88136351
0.022374453 -0.1921104 0.88149983
0.027759429 -0.19277382 0.88099998
0.032422762 -0.19221891 0.88199997
0.036422651 -0.19314842 0.88271427
-0.16134226 -0.18758796 0.88199997
-0.15796436 -0.18682536 0.88099998
-0.15267687 -0.18583396 0.88099998
-0.13262838 -0.18506284 0.88099998
-0.12653053 -0.18555343 0.88150001
-0.1225199 -0.18693686 0.88190913
-0.11725947 -0.18747362 0.88245451
-0.11277159 -0.18769385 0.88250011
-0.10742555 -0.18702866 0.88300008
-0.10190009 -0.18758708 0.88200003
-0.097422861 -0.18712425 0.88199997
-0.092406765 -0.18686979 0.88144445
-0.087536722 -0.18718797 0.88207692
-0.082269751 -0.18780778 0.88199991
-0.077197053 -0.1875871 0.88199991
-0.072668031 -0.18728043 0.88154542
-0.067959078 -0.18688631 0.88233328
-0.062760055 -0.18728675 0.88214296
-0.057158202 -0.18769388 0.88250011
-0.052523758 -0.18769385 0.88249993
-0.047682524 -0.18802689 0.88224995
-0.042820875 -0.18683888 0.88150001
-0.036891613 -0.1870819 0.8818
-0.032680336 -0.1874703 0.88299996
-0.02782245 -0.18780154 0.88299996
-0.02295706 -0.18829204 0.88271427
-0.018548299 -0.18857437 0.88300002
-0.0038642292 -0.18780154 0.88300002
0.0030881742 -0.18762268 0.88216656
0.0077211638 -0.18762268 0.88216662
0.012356197 -0.18843085 0.88233334
0.016997105 -0.18807124 0.88271427
0.022154912 -0.18754393 0.88299996
0.027659016 -0.18785602 0.88227272
0.032073099 -0.18818796 0.88300002
-0.16179609 -0.1821162 0.88166666
-0.15884562 -0.18352066 0.88099998
-0.13185729 -0.18274957 0.88099998
-0.12263181 -0.18232857 0.88120002
-0.11741265 -0.1823002 0.88255554
-0.11269388 -0.18216325 0.88188887
-0.10759179 -0.18245763 0.88263631
-0.10223164 -0.18207319 0.88219994
-0.097378574 -0.18239161 0.88299996
-0.092647351 -0.182208 0.88211107
-0.087775327 -0.18250453 0.88279998
-0.082414337 -0.18210149 0.88227272
-0.077284575 -0.18239158 0.88299996
-0.072647497 -0.18239161 0.88299996
-0.069556117 -0.1823916 0.88300008
-0.061634451 -0.18219841 0.88299996
-0.057190582 -0.18239161 0.88299996
-0.053480931 -0.18208246 0.88300002
-0.046370745 -0.18161875 0.88300002
-0.042178821 -0.18199985 0.88260001
-0.037096594 -0.18239161 0.88299996
0.0019321145 -0.1823916 0.88300002
0.0069556125 -0.1839373 0.88300002
0.027822448 -0.1839373 0.88300002
-0.165389 -0.17775454 0.88300008
-0.16347219 -0.1788941 0.88099998
-0.11720648 -0.1788941 0.88099998
-0.10718224 -0.1788941 0.88099998
-0.10101348 -0.1788941 0.88099998
-0.097158007 -0.178123 0.88099998
-0.092197523 -0.17861009 0.88150001
-0.087971382 -0.17748727 0.88166666
-0.081782058 -0.177839 0.88150001
-0.077186942 -0.17753202 0.88188887
-0.072610162 -0.17766544 0.88255554
-0.068203636 -0.17756131 0.88299996
-0.062389735 -0.17761402 0.88300002
-0.057190582 -0.17775452 0.88299996
-0.052746724 -0.17775452 0.88299996
-0.04772323 -0.17756131 0.88299996
-0.042490765 -0.1776877 0.88266677
-0.037096597 -0.17775452 0.88299996
-0.032768659 -0.17682712 0.88300002
-0.026791988 -0.17672408 0.88300008
-0.024215834 -0.17672408 0.88300008
-0.0066979975 -0.17672408 0.88300008
0.0015456916 -0.17930022 0.88300002
-0.16501439 -0.17349643 0.88099998
-0.080707967 -0.17375346 0.88099998
-0.077109523 -0.17349643 0.88099998
-0.072285652 -0.1732225 0.88128567
-0.067924462 -0.1729008 0.88188887
-0.062494311 -0.17282395 0.88150001
-0.057075825 -0.17276931 0.88122219
-0.052447319 -0.17276929 0.88122219
-0.047832415 -0.17281324 0.88144445
-0.042434454 -0.17282425 0.88150001
-0.036907714 -0.17265216 0.88220006
-0.032459524 -0.17234461 0.88300008
-0.02768193 -0.17213383 0.88300002
-0.023056567 -0.17195816 0.88300008
-0.017002607 -0.17234461 0.88300008
-0.012365534 -0.17234462 0.88300008
-0.007727291 -0.17231221 0.88283342
-0.0032459523 -0.17188089 0.88300002
0.0027043771 -0.1719255 0.8828333
0.0078830263 -0.17188089 0.88300002
0.01250605 -0.17213383 0.88300002
0.017143123 -0.17213382 0.88300002
0.022234179 -0.17180954 0.88300008
0.027307218 -0.17105655 0.88299996
0.032459524 -0.17002608 0.88300002
-0.165389 -0.16848038 0.88300002
-0.16347219 -0.16578549 0.88099998
-0.087904863 -0.16539994 0.88099998
-0.08135055 -0.16694212 0.88099998
-0.077880621 -0.16964096 0.88099998
-0.072482958 -0.16964096 0.88099998
-0.067856386 -0.16902409 0.88099992
-0.061687626 -0.16781838 0.88099992
-0.057061043 -0.16732769 0.88099986
-0.052434474 -0.1673277 0.88099986
-0.047807902 -0.16732769 0.88099986
-0.042410243 -0.16732767 0.8809998
-0.037197646 -0.16732363 0.88209093
-0.032459524 -0.1669347 0.88299996
-0.02801566 -0.16712791 0.88299996
-0.022412529 -0.16693471 0.88300008
-0.017002607 -0.16693468 0.88299996
-0.012365532 -0.1669347 0.88299996
-0.0077265128 -0.16689308 0.88277775
-0.0030913833 -0.1669347 0.88299996
0.0025283585 -0.16672607 0.88263631
0.0077245682 -0.16685146 0.88255548
0.012365533 -0.1669347 0.88299996
0.017002607 -0.1669347 0.88299996
0.022412525 -0.16693471 0.88300008
0.027822448 -0.1669347 0.88299996
0.032266311 -0.16674149 0.88299996
0.035550904 -0.165389 0.88300002
-0.16371959 -0.16217391 0.88233334
-0.095615812 -0.16038781 0.88099998
-0.092531435 -0.16038781 0.88099998
-0.08883018 -0.16192999 0.88099992
-0.066314191 -0.1611589 0.88099998
-0.061070748 -0.16192999 0.88099992
-0.057061046 -0.1627011 0.88099998
-0.051993851 -0.16215031 0.88099998
-0.047367282 -0.16170968 0.88099998
-0.042410236 -0.16192998 0.88099986
-0.037067421 -0.16217507 0.88233328
-0.03245952 -0.16229761 0.88299996
-0.027822448 -0.16229761 0.88299996
-0.022412529 -0.16229761 0.88300008
-0.017002607 -0.16229761 0.88299996
-0.012365533 -0.16249081 0.88299996
-0.0077265128 -0.16225637 0.88277769
-0.0030913833 -0.16229761 0.88299996
0.00231562 -0.16214444 0.88216668
0.0077152317 -0.16201091 0.88144445
0.012362033 -0.16225637 0.88277769
0.017002607 -0.16229761 0.88299996
0.022412525 -0.16229761 0.88300008
0.027822448 -0.16229761 0.88299996
0.032459524 -0.16229761 0.88299996
0.035550904 -0.16152477 0.88300002
-0.16288663 -0.15748198 0.88199997
-0.09623269 -0.156995 0.88099992
-0.092531428 -0.15730344 0.88099998
-0.087904856 -0.15730344 0.88099998
-0.08347106 -0.15711068 0.88099998
-0.067085281 -0.15730344 0.88099998
-0.061858978 -0.15696073 0.88099998
-0.057832144 -0.15653235 0.88099998
-0.051663384 -0.15730344 0.88099998
-0.047367278 -0.15708312 0.88099998
-0.042426288 -0.15736236 0.88133335
-0.037077144 -0.15758079 0.88255554
-0.03245952 -0.15766054 0.88299996
-0.027822448 -0.15766054 0.88299996
-0.022412529 -0.15766054 0.88300008
-0.017002605 -0.15766054 0.88299996
-0.012365534 -0.15766054 0.88299996
-0.0077284584 -0.15766054 0.88299996
-0.0033121966 -0.15810217 0.88299996
0.0027787439 -0.15767193 0.88219994
0.0077152317 -0.15738358 0.88144445
0.01236281 -0.15762125 0.88277775
0.017002607 -0.15843338 0.88299996
0.022567097 -0.15827881 0.88300002
0.028208872 -0.15881981 0.88300002
0.032201909 -0.15817577 0.88299996
0.035550904 -0.15920623 0.88300002
-0.16269532 -0.15312465 0.8818
-0.11720648 -0.15113467 0.88099998
-0.10949553 -0.15113467 0.88099998
-0.10101348 -0.15113467 0.88099998
-0.097158 -0.15267687 0.88099998
-0.092531428 -0.15267685 0.88099998
-0.088418923 -0.15319093 0.88099998
-0.082507193 -0.15283109 0.88099992
-0.076916747 -0.15267685 0.88099998
-0.074025147 -0.15267687 0.88099998
-0.067906559 -0.15279239 0.8816666
-0.062494311 -0.15276264 0.88150001
-0.057253819 -0.15248409 0.88099998
-0.052241702 -0.15248409 0.88099998
-0.047807906 -0.15267685 0.88099998
-0.042465959 -0.15287876 0.88216662
-0.037096594 -0.15302347 0.88299996
-0.032451741 -0.15298496 0.88277775
-0.027815057 -0.15298496 0.88277775
-0.022412529 -0.15302347 0.88300008
-0.017002605 -0.15302347 0.88299996
-0.012365533 -0.15324427 0.88299996
-0.007342035 -0.15379632 0.88300002
-0.0046370747 -0.15379632 0.88300002
0.0030902163 -0.15298456 0.88277775
0.0077226227 -0.15290676 0.88233328
0.012362811 -0.15298456 0.88277769
0.017002607 -0.15147777 0.88300008
0.023185374 -0.15240519 0.88300002
0.02751331 -0.15240517 0.88300002
0.031944294 -0.15250824 0.88300008
-0.16288665 -0.14821747 0.88200003
-0.12337524 -0.1465081 0.88099998
-0.11643538 -0.14805029 0.88099998
-0.1125799 -0.1465081 0.88099998
-0.10795333 -0.1465081 0.88099998
-0.10224724 -0.14774185 0.88099992
-0.097357035 -0.14780803 0.88139999
-0.092531428 -0.14805029 0.88099998
-0.088675953 -0.14805029 0.88099998
-0.081736103 -0.14805031 0.88099998
-0.077109523 -0.14805029 0.88099998
-0.072696298 -0.14732035 0.88125002
-0.067958497 -0.14750093 0.88233346
-0.062591761 -0.14759232 0.88287508
-0.057169583 -0.14755724 0.88266677
-0.052464236 -0.14736147 0.88150001
-0.047870636 -0.14747323 0.88216662
-0.04250652 -0.14761354 0.88300014
-0.037405733 -0.14761356 0.88300002
-0.032459524 -0.14761354 0.88300008
-0.02782245 -0.14761354 0.88300008
-0.022412529 -0.14761356 0.88300014
-0.017002607 -0.14782433 0.88300002
-0.012365532 -0.14684071 0.88299996
-0.0092741493 -0.14529501 0.88300002
0.0025117488 -0.14819318 0.88299996
0.0081700841 -0.14728233 0.88299996
0.012225016 -0.14740276 0.88300002
0.017002607 -0.14761354 0.88300008
0.022191714 -0.14761354 0.88300008
0.02751331 -0.14761356 0.88300002
0.031944294 -0.14890163 0.88300008
-0.165389 -0.14374933 0.88300002
-0.16347219 -0.14342372 0.88099998
-0.12645963 -0.14265262 0.88099998
-0.12260415 -0.14265262 0.8809998
-0.11689804 -0.14234418 0.88099992
-0.11275126 -0.14205287 0.88099998
-0.10795333 -0.14265263 0.88099986
-0.10255567 -0.14265262 0.8809998
-0.097058229 -0.14250153 0.88136369
-0.09341269 -0.14276278 0.88099998
-0.081973359 -0.14247467 0.88099986
-0.077138409 -0.14270572 0.88133317
-0.072602935 -0.14267625 0.88245451
-0.068010427 -0.14220363 0.88299996
-0.062600508 -0.14220363 0.88300008
-0.057190582 -0.14220363 0.88299996
-0.052553512 -0.14220363 0.88299996
-0.047916438 -0.14220363 0.88299996
-0.04250652 -0.14220361 0.88300008
-0.037096597 -0.14220363 0.88299996
-0.032459524 -0.14220361 0.88299996
-0.027822446 -0.14220363 0.88299996
-0.022482788 -0.14234413 0.88300002
-0.016809395 -0.14220363 0.88299996
-0.012365534 -0.14220363 0.88299996
-0.0092741493 -0.14065793 0.88300002
0.0015456916 -0.14374933 0.88300002
0.0081148809 -0.14297648 0.88300002
0.012365533 -0.14220363 0.88299996
0.017002607 -0.14220361 0.88299996
0.02144647 -0.14239684 0.88299996
0.027049603 -0.14297648 0.88300002
-0.16217624 -0.13591816 0.88233334
-0.15730344 -0.13571276 0.88099998
-0.15267687 -0.13571276 0.88099998
-0.1472792 -0.13571276 0.88099998
-0.14170122 -0.13645288 0.8818
-0.13838811 -0.13632952 0.88166666
-0.12249475 -0.13722712 0.88172722
-0.11732435 -0.13739227 0.88188887
-0.1126931 -0.13739306 0.88188887
-0.10771842 -0.13719353 0.88160002
-0.10238771 -0.13745117 0.88136351
-0.09725526 -0.13739267 0.88188887
-0.092578888 -0.13732381 0.88144445
-0.087927036 -0.13728958 0.88122219
-0.082599096 -0.13741076 0.88199997
-0.077284575 -0.13756655 0.88299996
-0.072647505 -0.13756655 0.88299996
-0.068783268 -0.13756655 0.88299996
-0.062600516 -0.13756655 0.88300008
-0.05719059 -0.13756655 0.88299996
-0.052553512 -0.13756654 0.88299996
-0.047916442 -0.13756655 0.88299996
-0.04250652 -0.13756655 0.88300008
-0.037096597 -0.13756655 0.88299996
-0.03245952 -0.13756654 0.88299996
-0.027822448 -0.13800818 0.88299996
-0.02210339 -0.13756654 0.88300002
-0.017002607 -0.13756655 0.88299996
-0.012365532 -0.13756654 0.88299996
0.0077284588 -0.1383394 0.88299996
0.012365532 -0.13833939 0.88299996
0.017002607 -0.13800818 0.88299996
0.022326658 -0.13739482 0.88299996
0.02751331 -0.13663915 0.88300002
0.030913834 -0.13602085 0.88300002
-0.15611485 -0.13447517 0.88300002
-0.15302347 -0.13447517 0.88300002
-0.1367937 -0.13447517 0.88300002
-0.13283028 -0.13437365 0.88233328
-0.12768979 -0.13386118 0.88150001
-0.11669971 -0.13447517 0.88300002
-0.11438117 -0.13447517 0.88300002
-0.10665271 -0.13447517 0.88300008
-0.10024238 -0.13417058 0.88099998
-0.09730389 -0.13437365 0.88233328
-0.091642171 -0.13385841 0.88233328
-0.087780289 -0.13360079 0.88233328
-0.082736336 -0.13398328 0.8818
-0.077284582 -0.13447517 0.88300008
-0.072647505 -0.13447517 0.88300008
-0.068783268 -0.13447517 0.88300002
-0.062342893 -0.13395993 0.88299996
-0.056881446 -0.13385689 0.88300002
-0.054099206 -0.13370232 0.88300002
-0.046370745 -0.13370232 0.88300002
-0.042661089 -0.13385689 0.88300002
-0.022412529 -0.13318709 0.88299996
-0.017002607 -0.13370232 0.88299996
-0.012365533 -0.13385689 0.88300002
0.015456917 -0.13447517 0.88300002
0.023185372 -0.13370232 0.88299996
0.02782245 -0.13447517 0.88300008
0.030913834 -0.13447517 0.88300002
0.038385838 -0.21713202 0.88599998
0.038773574 -0.21325468 0.88599998
0.040415544 -0.2114044 0.88800001
0.040415544 -0.20674105 0.88800001
0.040324517 -0.20265655 0.88599998
0.040324517 -0.19774523 0.88599998
-0.01550943 -0.19076599 0.88599998
0.037739612 -0.19231693 0.88599998
-0.049113195 -0.18663013 0.88599998
-0.031794332 -0.18611315 0.88599998
-0.027916975 -0.18611316 0.88599998
-0.021971693 -0.18663013 0.88599998
-0.016866503 -0.18747023 0.88600004
-0.012407543 -0.18766412 0.88600004
-0.0077547142 -0.18766409 0.88600004
-0.0024815085 -0.1870437 0.88599998
0 -0.18766411 0.88599998
0.012407544 -0.18611316 0.88599998
0.017060373 -0.18611316 0.88599998
0.023264145 -0.18611316 0.88599998
0.029467916 -0.18611315 0.88599998
0.032910101 -0.1869016 0.88679999
0.03572537 -0.18794537 0.88733333
-0.066690542 -0.18301128 0.88600004
-0.063588664 -0.18456221 0.88599998
-0.051568855 -0.18339901 0.88599998
-0.048522357 -0.18323283 0.88600004
-0.044201877 -0.18456221 0.88599998
-0.0325698 -0.18301128 0.88600004
-0.027916972 -0.18301128 0.88600004
-0.022504427 -0.18314838 0.8866666
-0.017087214 -0.18328671 0.88733339
-0.012414547 -0.1831027 0.88644445
-0.0077547142 -0.18301126 0.88600004
-0.0031018858 -0.18301129 0.88600004
0.002241418 -0.18275726 0.88644451
0.0079332655 -0.18211308 0.88666672
0.012429134 -0.18254332 0.88749999
0.016939592 -0.18307185 0.88780004
0.022624463 -0.18277372 0.88699996
0.027593324 -0.1822854 0.88666666
0.03238425 -0.18368347 0.88800001
-0.065915078 -0.17990939 0.88599998
-0.051181119 -0.17835845 0.88599998
-0.049630176 -0.17990939 0.88599998
-0.032182068 -0.17952165 0.88599998
-0.028581662 -0.17835845 0.88600004
-0.021713199 -0.17807645 0.88600004
-0.017060371 -0.17835845 0.88600004
-0.012407543 -0.17835844 0.88600004
-0.0082716951 -0.17887545 0.88599998
-0.0029608908 -0.17779447 0.88600004
0.0025857801 -0.17765008 0.88633329
0.0075647859 -0.17710203 0.88650006
0.01218948 -0.17730816 0.88628578
0.017060371 -0.17784147 0.88600004
0.022552632 -0.177435 0.88615382
0.027754616 -0.17681408 0.88700002
0.032643329 -0.17642941 0.88800001
0.035752211 -0.17565218 0.88800001
-0.020162258 -0.17293015 0.88599998
0 -0.17293015 0.88599998
0.028950935 -0.17318864 0.88599998
0.0325698 -0.17259781 0.88600004
0.03572537 -0.17241491 0.88733333
-0.026366033 -0.16595091 0.88599998
0 -0.16905279 0.88599998
0.034120746 -0.16905279 0.88599998
0.036468167 -0.16759637 0.88649994
-0.012407544 -0.16129807 0.88599998
0.036876909 -0.16341968 0.88699996
-0.0023264145 -0.15586977 0.88599998
0 -0.15664524 0.88599998
0.017060371 -0.15586977 0.88599998
0.022178482 -0.15695544 0.88600004
0.027723104 -0.15645137 0.88600004
0.03282829 -0.15612824 0.88599998
0.036569946 -0.15713838 0.88628578
-0.16439995 -0.15199241 0.88599998
-0.012407544 -0.15137205 0.88599998
-0.0079485821 -0.15199241 0.88600004
-0.002908018 -0.15179853 0.88600004
0 -0.15199241 0.88599998
0.0077547152 -0.15044147 0.88599998
0.013958487 -0.15044147 0.88599998
0.017060373 -0.15354335 0.88599998
0.022333577 -0.15261278 0.88599998
0.029467916 -0.15121694 0.88599998
0.03287999 -0.15168223 0.88599998
0.036100563 -0.15255171 0.88699996
-0.16607578 -0.14745164 0.8866666
-0.16439995 -0.14811507 0.88599998
-0.035671689 -0.14811507 0.88599998
-0.017060373 -0.14578865 0.88599998
-0.012407544 -0.1473396 0.88599998
-0.0075608464 -0.14753345 0.88600004
-0.0031018858 -0.1473396 0.88600004
0.0024371962 -0.14721254 0.88657141
0.0069792438 -0.14811507 0.88599998
0.024815088 -0.14578865 0.88599998
0.029467916 -0.14578865 0.88599998
0.032813374 -0.14699098 0.88657141
0.035752211 -0.14922664 0.88800001
-0.027916973 -0.14268675 0.88599998
-0.021713203 -0.14113581 0.88599998
-0.018611316 -0.14268675 0.88599998
-0.0075608464 -0.14288063 0.88600004
-0.0031026639 -0.14275795 0.88644451
0.0023969116 -0.14263359 0.88654542
0.0074445261 -0.14206639 0.88599998
0.024427352 -0.14229903 0.88599998
0.028537352 -0.14206637 0.88599998
0.031794328 -0.14268674 0.88599998
-0.066690549 -0.13803393 0.88599998
-0.027916975 -0.13648298 0.88599998
-0.024039615 -0.13803393 0.88599998
-0.0077547142 -0.13803393 0.88600004
-0.0031018858 -0.13803393 0.88600004
0.0023271646 -0.13767882 0.88657135
0.0077547152 -0.13648298 0.88599998
0.012407544 -0.13648298 0.88599998
0.017060373 -0.13648298 0.88599998
0.022747165 -0.13855091 0.88599998
0.028304711 -0.13919714 0.88599998
0.032948691 -0.13799931 0.88688886
0.035752211 -0.1375683 0.88800001
-0.16129807 -0.13493204 0.88599998
-0.15733902 -0.13430712 0.88700002
-0.15210794 -0.13451542 0.8866666
-0.1473396 -0.13493204 0.88599998
-0.14268677 -0.13493204 0.88599998
-0.13958487 -0.13493204 0.88599998
-0.13183016 -0.1333811 0.88599998
-0.12562639 -0.13493204 0.88599998
-0.1225245 -0.13493204 0.88599998
-0.11787166 -0.13389808 0.88599998
-0.11218303 -0.13413182 0.88657147
-0.10779054 -0.1333811 0.88599998
-0.10236224 -0.13441506 0.88599998
-0.09770941 -0.1333811 0.88599998
-0.093549348 -0.13353077 0.88699996
-0.087550916 -0.1322594 0.88679999
-0.081424505 -0.1333811 0.88599998
-0.077547148 -0.1333811 0.88599998
-0.072976597 -0.13275443 0.88700002
-0.067232333 -0.13226692 0.88633329
-0.062077735 -0.13147105 0.88657147
-0.058031876 -0.13188897 0.88639992
-0.052288931 -0.13315953 0.88600004
-0.048522357 -0.13315953 0.88600004
-0.042580429 -0.13183016 0.88600004
-0.037232693 -0.13361216 0.88625008
-0.03259737 -0.133687 0.88675004
-0.027579708 -0.13324223 0.88622224
-0.02248867 -0.13198526 0.88600004
-0.017060371 -0.13105468 0.88599998
-0.012411545 -0.13142905 0.88628572
-0.0077587995 -0.13267945 0.88650006
-0.0031049494 -0.13372464 0.88700002
0.002071036 -0.13340834 0.88733339
0.0077576325 -0.13420676 0.88633329
0.012416881 -0.1334803 0.88666666
0.017264744 -0.13326207 0.8865
0.021713201 -0.13227329 0.88600004
0.027979992 -0.13368219 0.88800001
0.03210067 -0.13409881 0.88733333
-0.06839554 -0.12901886 0.88800001
-0.062177762 -0.12901886 0.88800001
-0.021713203 -0.12872827 0.88599998
-0.017835844 -0.12872827 0.88599998
0.040597599 -0.21704102 0.89200002
0.04053691 -0.21307904 0.89066666
0.040597599 -0.20923378 0.89200002
0.040506568 -0.20253286 0.88999999
0.038487662 -0.19191551 0.89133334
0.037885319 -0.18697141 0.89114285
0.0077897254 -0.18072163 0.88999999
0.029600954 -0.18227956 0.88999999
0.032976504 -0.1820199 0.88999993
0.03745681 -0.18259855 0.89155555
0.029600954 -0.17916368 0.88999999
0.032716844 -0.17916368 0.89000005
0.037628748 -0.17800003 0.89100003
0.03833095 -0.17270783 0.89114285
0.038624786 -0.16776006 0.8915
0.038977802 -0.16214882 0.89066666
0.038948625 -0.15735245 0.89000005
0.038360458 -0.15250356 0.8908
0.036380056 -0.14811681 0.89066666
0.03427479 -0.14333093 0.89000005
0.036536437 -0.14235465 0.89085716
0.037885327 -0.13705215 0.89114285
-0.10594027 -0.13398327 0.88999999
-0.097480975 -0.13257411 0.89099997
-0.093476698 -0.13242532 0.88999999
-0.082113616 -0.13200404 0.89066666
-0.07798478 -0.13179339 0.89100003
-0.072607242 -0.13116147 0.89200002
-0.056928013 -0.13101442 0.89100003
-0.053869888 -0.13116147 0.89200002
-0.049966276 -0.13116147 0.89200002
-0.037474707 -0.13272291 0.89200002
-0.032716844 -0.13242532 0.88999999
-0.029600954 -0.13242532 0.88999999
-0.0038948627 -0.13164635 0.88999999
0.0031176407 -0.13179339 0.89100003
0.0077897259 -0.13242532 0.89000005
0.014021505 -0.13086738 0.88999999
0.015579451 -0.13086738 0.88999999
0.028083855 -0.13262372 0.89133334
0.033043139 -0.13248414 0.89039993
0.036406901 -0.13366352 0.89133334
-0.057729159 -0.12950318 0.89133334
0.03844244 -0.14748837 0.89633328
0.039225787 -0.14278419 0.89633328
0.032958765 -0.13089505 0.89659995
0.037896574 -0.13252512 0.89671427
-0.17089431 0.098344848 0.921
