# .PCD v0.7 - Point Cloud Data file format
VERSION 0.7
FIELDS x y z rgba
SIZE 4 4 4 4
TYPE F F F U
COUNT 1 1 1 1
WIDTH 1291
HEIGHT 1
VIEWPOINT 0 0 0 1 0 0 0
POINTS 1291
DATA ascii
-0.25390625 0.067589186 -0.58567709 0
-0.25130212 0.066993736 -0.58567709 0
-0.24869794 0.067975238 -0.58567709 0
-0.24609375 0.068409771 -0.58567709 0
-0.24348962 0.06836421 -0.58567709 0
-0.24088544 0.068740353 -0.58567709 0
-0.23828125 0.068654761 -0.58567709 0
-0.29295069 0.063802123 -0.58828127 0
-0.29036462 0.063802123 -0.58723187 0
-0.28776044 0.063802123 -0.58640069 0
-0.28515625 0.063802123 -0.58660722 0
-0.28255212 0.063802123 -0.58661699 0
-0.27994794 0.063802123 -0.58684289 0
-0.27994794 0.066025481 -0.58828127 0
-0.27734375 0.063802123 -0.5863685 0
-0.27572441 0.063802123 -0.58567709 0
-0.27473962 0.06478864 -0.58567709 0
-0.27213544 0.064810947 -0.58567709 0
-0.26953125 0.065871127 -0.58567709 0
-0.26692712 0.065731995 -0.58567709 0
-0.30412281 0.061197937 -0.58828127 0
-0.30338544 0.061197937 -0.58805937 0
-0.30338544 0.061532643 -0.58828127 0
-0.30078125 0.061197937 -0.58742994 0
-0.30078125 0.061888926 -0.58828127 0
-0.29817712 0.061197937 -0.58811778 0
-0.29817712 0.061380491 -0.58828127 0
-0.29557294 0.061197937 -0.58702242 0
-0.29557294 0.063282952 -0.58828127 0
-0.29296875 0.061197937 -0.58679056 0
-0.29296875 0.063787438 -0.58828127 0
-0.29036462 0.061197937 -0.58577746 0
-0.28996906 0.061197937 -0.58567709 0
-0.28776044 0.062430218 -0.58567709 0
-0.28515625 0.062518202 -0.58567709 0
-0.28255212 0.062700495 -0.58567709 0
-0.27994794 0.062921956 -0.58567709 0
-0.27734375 0.062901013 -0.58567709 0
-0.31331328 0.05859375 -0.58828127 0
-0.31119794 0.05859375 -0.58761841 0
-0.31119794 0.060094737 -0.58828127 0
-0.30859375 0.05859375 -0.58728915 0
-0.30859375 0.060171247 -0.58828127 0
-0.30598962 0.05859375 -0.5870775 0
-0.30598962 0.060200356 -0.58828127 0
-0.30338544 0.05859375 -0.58712798 0
-0.30078125 0.05859375 -0.58606017 0
-0.29817712 0.05859375 -0.58645856 0
-0.29557294 0.05859375 -0.58607566 0
-0.29296875 0.05859375 -0.58591759 0
-0.29236829 0.05859375 -0.58567709 0
-0.29036462 0.060941081 -0.58567709 0
-0.31742388 0.055989623 -0.58828127 0
-0.31640625 0.055989623 -0.58774143 0
-0.31640625 0.057218127 -0.58828127 0
-0.31380212 0.055989623 -0.58704472 0
-0.31380212 0.058324952 -0.58828127 0
-0.31119794 0.055989623 -0.58628523 0
-0.30859375 0.055989623 -0.58571434 0
-0.3082951 0.055989623 -0.58567709 0
-0.30598962 0.056513026 -0.58567709 0
-0.30338544 0.056247953 -0.58567709 0
-0.30078125 0.057943698 -0.58567709 0
-0.29817712 0.057628382 -0.58567709 0
-0.29557294 0.058000557 -0.58567709 0
-0.29296875 0.058247186 -0.58567709 0
-0.3205041 0.053385437 -0.58828127 0
-0.31901044 0.053385437 -0.58771557 0
-0.31901044 0.054273546 -0.58828127 0
-0.31640625 0.053385437 -0.58669275 0
-0.31380212 0.053385437 -0.58575225 0
-0.31358448 0.053385437 -0.58567709 0
-0.31119794 0.054969989 -0.58567709 0
-0.30859375 0.055930745 -0.58567709 0
-0.32952982 0.05078125 -0.58828127 0
-0.32942712 0.05078125 -0.58825535 0
-0.32942712 0.050833266 -0.58828127 0
-0.32682294 0.05078125 -0.58828092 0
-0.32682294 0.050782301 -0.58828127 0
-0.32421875 0.05078125 -0.58771163 0
-0.32421875 0.051654648 -0.58828127 0
-0.32161462 0.05078125 -0.58737808 0
-0.32161462 0.052604109 -0.58828127 0
-0.31901044 0.05078125 -0.58621991 0
-0.31742427 0.05078125 -0.58567709 0
-0.31640625 0.051373675 -0.58567709 0
-0.31380212 0.053214017 -0.58567709 0
-0.33203125 0.049749169 -0.58828127 0
-0.33203125 0.048177123 -0.58739799 0
-0.32942712 0.048177123 -0.58662856 0
-0.32682294 0.048177123 -0.58568418 0
-0.3268058 0.048177123 -0.58567709 0
-0.32421875 0.049313322 -0.58567709 0
-0.32161462 0.049239688 -0.58567709 0
-0.31901044 0.0499935 -0.58567709 0
-0.33024961 0.045572937 -0.58567709 0
-0.32942712 0.046101935 -0.58567709 0
-0.33203125 0.045572937 -0.58634484 0
-0.32682294 0.04816759 -0.58567709 0
-0.33203125 0.044891674 -0.58567709 0
0.17866847 0.16796875 -0.59609377 0
0.17838538 0.16930519 -0.59869796 0
0.17838538 0.16796875 -0.59634793 0
0.18098962 0.16882162 -0.59609377 0
0.18098962 0.16929185 -0.59869796 0
0.17838538 0.16730201 -0.59609377 0
0.15241878 0.16276044 -0.59869796 0
0.15494788 0.16276044 -0.5983479 0
0.15494788 0.16330063 -0.59869796 0
0.15755206 0.16276044 -0.5981676 0
0.15755206 0.16380163 -0.59869796 0
0.16015625 0.16276044 -0.59827244 0
0.16015625 0.16380633 -0.59869796 0
0.16246843 0.16276044 -0.59869796 0
0.16300642 0.16276044 -0.59869796 0
0.16536456 0.16276044 -0.59814262 0
0.16536456 0.16379111 -0.59869796 0
0.17578125 0.16536462 -0.59614187 0
0.17578125 0.1653042 -0.59609377 0
0.17582709 0.16536462 -0.59609377 0
0.13403924 0.16015625 -0.59869796 0
0.13411456 0.16015625 -0.59868336 0
0.13411456 0.16018841 -0.59869796 0
0.13671875 0.16015625 -0.59813762 0
0.13671875 0.16144434 -0.59869796 0
0.13932288 0.16015625 -0.59803057 0
0.13932288 0.16123377 -0.59869796 0
0.14192706 0.16015625 -0.59810013 0
0.14192706 0.16090138 -0.59869796 0
0.14453125 0.16015625 -0.59827375 0
0.14453125 0.16066238 -0.59869796 0
0.14713538 0.16015625 -0.5978989 0
0.14713538 0.16146179 -0.59869796 0
0.14973956 0.16015625 -0.59760797 0
0.14973956 0.1619582 -0.59869796 0
0.15234375 0.16015625 -0.59729171 0
0.15234375 0.16274202 -0.59869796 0
0.15494788 0.16015625 -0.59695148 0
0.15755206 0.16015625 -0.59665793 0
0.16015625 0.16015625 -0.59775203 0
0.16276038 0.16015625 -0.59789193 0
0.16276038 0.16259341 -0.59869796 0
0.16536456 0.16015625 -0.59743947 0
0.12098983 0.15755212 -0.59869796 0
0.12109375 0.15755212 -0.59868056 0
0.12109375 0.15756883 -0.59869796 0
0.12369788 0.15755212 -0.59835941 0
0.12369788 0.15788287 -0.59869796 0
0.12630206 0.15755212 -0.59793854 0
0.12630206 0.15867783 -0.59869796 0
0.12890625 0.15755212 -0.59787124 0
0.12890625 0.15913649 -0.59869796 0
0.13151038 0.15755212 -0.59784776 0
0.13151038 0.15931965 -0.59869796 0
0.13411456 0.15755212 -0.59755027 0
0.13671875 0.15755212 -0.59695208 0
0.13932288 0.15755212 -0.59650594 0
0.14192706 0.15755212 -0.59644777 0
0.14453125 0.15755212 -0.5966472 0
0.14713538 0.15755212 -0.59661478 0
0.14973956 0.15755212 -0.59624803 0
0.15234375 0.15755212 -0.59614182 0
0.15265965 0.15755212 -0.59609377 0
0.15494788 0.15832935 -0.59609377 0
0.15755206 0.15821445 -0.59609377 0
0.15789877 0.15755212 -0.59609377 0
0.16015625 0.15755212 -0.59721965 0
0.11083478 0.15494794 -0.59869796 0
0.11328125 0.15494794 -0.59783787 0
0.11328125 0.15667471 -0.59869796 0
0.11588538 0.15494794 -0.59746134 0
0.11588538 0.15648124 -0.59869796 0
0.11848956 0.15494794 -0.59728116 0
0.11848956 0.15688185 -0.59869796 0
0.12109375 0.15494794 -0.59677863 0
0.12369788 0.15494794 -0.59692985 0
0.12630206 0.15494794 -0.59650761 0
0.12890625 0.15494794 -0.59632188 0
0.13151038 0.15494794 -0.59660274 0
0.13411456 0.15494794 -0.5962615 0
0.1352417 0.15494794 -0.59609377 0
0.13671875 0.15547594 -0.59609377 0
0.13932288 0.15672933 -0.59609377 0
0.14192706 0.1567966 -0.59609377 0
0.14453125 0.15660238 -0.59609377 0
0.14713538 0.15653324 -0.59609377 0
0.14973956 0.15721935 -0.59609377 0
0.15234375 0.15743478 -0.59609377 0
0.16015625 0.1567544 -0.59609377 0
0.089283206 0.15234375 -0.59869796 0
0.08984375 0.15234375 -0.59854156 0
0.08984375 0.15251668 -0.59869796 0
0.092447877 0.15234375 -0.59765512 0
0.092447877 0.15311696 -0.59869796 0
0.095052063 0.15234375 -0.59778249 0
0.095052063 0.15303873 -0.59869796 0
0.09765625 0.15234375 -0.59763008 0
0.09765625 0.15327734 -0.59869796 0
0.10026038 0.15234375 -0.59770507 0
0.10026038 0.15342809 -0.59869796 0
0.10286456 0.15234375 -0.59800678 0
0.10286456 0.1536693 -0.59869796 0
0.10546875 0.15234375 -0.59776539 0
0.10546875 0.15455709 -0.59869796 0
0.10807288 0.15234375 -0.59754276 0
0.10807288 0.15426664 -0.59869796 0
0.11067706 0.15234375 -0.59626842 0
0.11067706 0.15489149 -0.59869796 0
0.11328125 0.15234375 -0.59669679 0
0.11588538 0.15234375 -0.59640676 0
0.11848956 0.15234375 -0.59628087 0
0.11910435 0.15234375 -0.59609377 0
0.12109375 0.15359159 -0.59609377 0
0.12369788 0.153634 -0.59609377 0
0.12630206 0.15429041 -0.59609377 0
0.12890625 0.1545383 -0.59609377 0
0.13151038 0.15416543 -0.59609377 0
0.13411456 0.15469758 -0.59609377 0
0.067879945 0.14973962 -0.59869796 0
0.069010377 0.14973962 -0.59852487 0
0.069010377 0.14992809 -0.59869796 0
0.071614563 0.14973962 -0.5983997 0
0.071614563 0.15005763 -0.59869796 0
0.073989451 0.14973962 -0.59869796 0
0.074449494 0.14973962 -0.59869796 0
0.076822877 0.14973962 -0.59837824 0
0.076822877 0.15043201 -0.59869796 0
0.079427063 0.14973962 -0.5983873 0
0.079427063 0.15011749 -0.59869796 0
0.08203125 0.14973962 -0.59827226 0
0.08203125 0.1503212 -0.59869796 0
0.084635377 0.14973962 -0.5982672 0
0.084635377 0.15026818 -0.59869796 0
0.087239563 0.14973962 -0.59782171 0
0.087239563 0.15129401 -0.59869796 0
0.08984375 0.14973962 -0.59676051 0
0.092200622 0.14973962 -0.59609377 0
0.092447877 0.14982545 -0.59609377 0
0.095052063 0.15005679 -0.59609377 0
0.097599924 0.14973962 -0.59609377 0
0.09765625 0.14973962 -0.59610158 0
0.10026038 0.14973962 -0.59659201 0
0.10286456 0.14973962 -0.59627676 0
0.10317244 0.14973962 -0.59609377 0
0.10546875 0.15089369 -0.59609377 0
0.10807288 0.15103173 -0.59609377 0
0.11067706 0.15210448 -0.59609377 0
0.11328125 0.15128992 -0.59609377 0
0.11588538 0.1516939 -0.59609377 0
0.11848956 0.15203661 -0.59609377 0
0.059082024 0.14713544 -0.59869796 0
0.061197877 0.14713544 -0.59860396 0
0.061197877 0.14728478 -0.59869796 0
0.063802063 0.14713544 -0.59839755 0
0.063802063 0.14773187 -0.59869796 0
0.06640625 0.14713544 -0.59757346 0
0.06640625 0.14928068 -0.59869796 0
0.069010377 0.14713544 -0.59710389 0
0.071614563 0.14713544 -0.59722018 0
0.07421875 0.14713544 -0.59724146 0
0.07421875 0.14969191 -0.59869796 0
0.076822877 0.14713544 -0.59689832 0
0.079427063 0.14713544 -0.59662402 0
0.08203125 0.14713544 -0.59704322 0
0.084635377 0.14713544 -0.59731299 0
0.087239563 0.14713544 -0.59700119 0
0.089454658 0.14713544 -0.59609377 0
0.08984375 0.14770579 -0.59609377 0
0.09765625 0.14972727 -0.59609377 0
0.10026038 0.14931265 -0.59609377 0
0.10286456 0.14955977 -0.59609377 0
0.033032782 0.14453125 -0.59869796 0
0.03515625 0.14453125 -0.59843743 0
0.03515625 0.1448732 -0.59869796 0
0.037760377 0.14453125 -0.59834337 0
0.037760377 0.14494331 -0.59869796 0
0.040364563 0.14453125 -0.59841007 0
0.040364563 0.14483102 -0.59869796 0
0.042835295 0.14453125 -0.59869796 0
0.048457883 0.14453125 -0.59869796 0
0.05078125 0.14453125 -0.59829628 0
0.05078125 0.14514744 -0.59869796 0
0.053385377 0.14453125 -0.5980047 0
0.053385377 0.14569029 -0.59869796 0
0.055989563 0.14453125 -0.59715891 0
0.055989563 0.14700381 -0.59869796 0
0.05859375 0.14453125 -0.59676522 0
0.05859375 0.14710365 -0.59869796 0
0.061197877 0.14453125 -0.5966835 0
0.063802063 0.14453125 -0.59618354 0
0.065515734 0.14453125 -0.59609377 0
0.06640625 0.1446166 -0.59609377 0
0.069010377 0.1454647 -0.59609377 0
0.071614563 0.14468805 -0.59609377 0
0.07421875 0.14553557 -0.59609377 0
0.076822877 0.14597858 -0.59609377 0
0.079427063 0.14626178 -0.59609377 0
0.08203125 0.1458983 -0.59609377 0
0.084635377 0.14581464 -0.59609377 0
0.087239563 0.14612491 -0.59609377 0
0.026307032 0.14192712 -0.59869796 0
0.02734375 0.14192712 -0.59852231 0
0.02734375 0.14226571 -0.59869796 0
0.029947877 0.14192712 -0.59783447 0
0.029947877 0.14338146 -0.59869796 0
0.032552063 0.14192712 -0.59728384 0
0.032552063 0.14443599 -0.59869796 0
0.03515625 0.14192712 -0.59711039 0
0.037760377 0.14192712 -0.59689158 0
0.040364563 0.14192712 -0.59681481 0
0.04296875 0.14192712 -0.59684342 0
0.04296875 0.14451118 -0.59869796 0
0.045572877 0.14192712 -0.59664905 0
0.045572877 0.1443764 -0.59869796 0
0.048177063 0.14192712 -0.5968188 0
0.048177063 0.14447285 -0.59869796 0
0.05078125 0.14192712 -0.59642118 0
0.053385377 0.14192712 -0.59627604 0
0.054313712 0.14192712 -0.59609377 0
0.055989563 0.14260887 -0.59609377 0
0.05859375 0.14350054 -0.59609377 0
0.061197877 0.14380085 -0.59609377 0
0.063802063 0.14443578 -0.59609377 0
0.010996938 0.13932294 -0.59869796 0
0.01171875 0.13932294 -0.59865439 0
0.01171875 0.1393729 -0.59869796 0
0.014322877 0.13932294 -0.59838808 0
0.014322877 0.1396659 -0.59869796 0
0.016927063 0.13932294 -0.59798181 0
0.016927063 0.14034003 -0.59869796 0
0.01953125 0.13932294 -0.59769624 0
0.01953125 0.14060374 -0.59869796 0
0.022135377 0.13932294 -0.5975641 0
0.022135377 0.14107934 -0.59869796 0
0.024739563 0.13932294 -0.5976088 0
0.024739563 0.14133427 -0.59869796 0
0.02734375 0.13932294 -0.59732068 0
0.029947877 0.13932294 -0.59637028 0
0.0310387 0.13932294 -0.59609377 0
0.032552063 0.13988915 -0.59609377 0
0.03515625 0.14002852 -0.59609377 0
0.037760377 0.14036399 -0.59609377 0
0.040364563 0.14064209 -0.59609377 0
0.04296875 0.14068994 -0.59609377 0
0.045572877 0.14120975 -0.59609377 0
0.048177063 0.1410993 -0.59609377 0
0.05078125 0.14149849 -0.59609377 0
0.053385377 0.14165439 -0.59609377 0
-0.0010368489 0.13671875 -0.59869796 0
0.0013020635 0.13671875 -0.5979827 0
0.0013020635 0.13761729 -0.59869796 0
0.00390625 0.13671875 -0.59712023 0
0.00390625 0.13885592 -0.59869796 0
0.0065103769 0.13671875 -0.59720606 0
0.0065103769 0.13881198 -0.59869796 0
0.0091145635 0.13671875 -0.59718561 0
0.0091145635 0.13915455 -0.59869796 0
0.01171875 0.13671875 -0.59713632 0
0.014322877 0.13671875 -0.59671974 0
0.016927063 0.13671875 -0.59629059 0
0.018225223 0.13671875 -0.59609377 0
0.01953125 0.13702382 -0.59609377 0
0.022135377 0.13723035 -0.59609377 0
0.024739563 0.13702309 -0.59609377 0
0.02734375 0.13757752 -0.59609377 0
0.029947877 0.13882394 -0.59609377 0
-0.011361201 0.13411462 -0.59869796 0
-0.0091146231 0.13411462 -0.59789705 0
-0.0091146231 0.13509865 -0.59869796 0
-0.0065104365 0.13411462 -0.59739566 0
-0.0065104365 0.13534749 -0.59869796 0
-0.00390625 0.13411462 -0.5968284 0
-0.00390625 0.1358075 -0.59869796 0
-0.0013021231 0.13411462 -0.59647965 0
-0.0013021231 0.13661182 -0.59869796 0
0.0013020635 0.13411462 -0.59632683 0
0.0022874805 0.13411462 -0.59609377 0
0.00390625 0.13475542 -0.59609377 0
0.0065103769 0.13529357 -0.59609377 0
0.0091145635 0.13535303 -0.59609377 0
0.01171875 0.13539921 -0.59609377 0
0.014322877 0.13570471 -0.59609377 0
0.016927063 0.13628149 -0.59609377 0
-0.026682148 0.13151044 -0.59869796 0
-0.024739623 0.13151044 -0.5983882 0
-0.024739623 0.13183911 -0.59869796 0
-0.022135437 0.13151044 -0.59812951 0
-0.022135437 0.1320747 -0.59869796 0
-0.01953125 0.13151044 -0.59788185 0
-0.01953125 0.13227357 -0.59869796 0
-0.016927123 0.13151044 -0.59801918 0
-0.016927123 0.13223621 -0.59869796 0
-0.014322937 0.13151044 -0.59747756 0
-0.014322937 0.1329698 -0.59869796 0
-0.01171875 0.13151044 -0.59691334 0
-0.01171875 0.13396092 -0.59869796 0
-0.0091146231 0.13151044 -0.59616333 0
-0.0085058063 0.13151044 -0.59609377 0
-0.0065104365 0.13192637 -0.59609377 0
-0.00390625 0.13295044 -0.59609377 0
-0.0013021231 0.13354687 -0.59609377 0
0.0013020635 0.13380855 -0.59609377 0
-0.035880055 0.12890625 -0.59869796 0
-0.03515625 0.12890625 -0.59857273 0
-0.03515625 0.12907606 -0.59869796 0
-0.032552123 0.12890625 -0.59810197 0
-0.032552123 0.12986656 -0.59869796 0
-0.029947937 0.12890625 -0.5974322 0
-0.029947937 0.13080785 -0.59869796 0
-0.02734375 0.12890625 -0.59756887 0
-0.02734375 0.13126907 -0.59869796 0
-0.024739623 0.12890625 -0.59714973 0
-0.022135437 0.12890625 -0.59694922 0
-0.01953125 0.12890625 -0.59620404 0
-0.016927123 0.12890625 -0.59620321 0
-0.016369408 0.12890625 -0.59609377 0
-0.014322937 0.12939696 -0.59609377 0
-0.01171875 0.13013829 -0.59609377 0
-0.0091146231 0.13136454 -0.59609377 0
-0.05020532 0.12630212 -0.59869796 0
-0.048177123 0.12630212 -0.59825885 0
-0.048177123 0.12674527 -0.59869796 0
-0.045572937 0.12630212 -0.59794343 0
-0.045572937 0.12713926 -0.59869796 0
-0.04296875 0.12630212 -0.59789616 0
-0.04296875 0.12757871 -0.59869796 0
-0.040364623 0.12630212 -0.59781587 0
-0.040364623 0.12801982 -0.59869796 0
-0.037760437 0.12630212 -0.59758765 0
-0.037760437 0.12839465 -0.59869796 0
-0.03515625 0.12630212 -0.59752464 0
-0.032552123 0.12630212 -0.59704208 0
-0.029947937 0.12630212 -0.59640443 0
-0.02734375 0.12630212 -0.59614748 0
-0.027120674 0.12630212 -0.59609377 0
-0.024739623 0.12730294 -0.59609377 0
-0.022135437 0.12740429 -0.59609377 0
-0.01953125 0.12863082 -0.59609377 0
-0.016927123 0.12870927 -0.59609377 0
-0.054863304 0.12369794 -0.59869796 0
-0.053385437 0.12369794 -0.59789228 0
-0.053385437 0.12487777 -0.59869796 0
-0.05078125 0.12369794 -0.59692872 0
-0.05078125 0.12610047 -0.59869796 0
-0.048177123 0.12369794 -0.59669375 0
-0.045572937 0.12369794 -0.59662372 0
-0.04296875 0.12369794 -0.5964787 0
-0.040886912 0.12369794 -0.59609377 0
-0.040364623 0.12381621 -0.59609377 0
-0.037760437 0.12451875 -0.59609377 0
-0.03515625 0.124602 -0.59609377 0
-0.032552123 0.1249717 -0.59609377 0
-0.029947937 0.12580889 -0.59609377 0
-0.02734375 0.12622359 -0.59609377 0
-0.069062002 0.12109375 -0.59869796 0
-0.069010437 0.12109375 -0.59868693 0
-0.069010437 0.12110899 -0.59869796 0
-0.06640625 0.12109375 -0.59821689 0
-0.06640625 0.12175299 -0.59869796 0
-0.063802123 0.12109375 -0.5978927 0
-0.063802123 0.12218798 -0.59869796 0
-0.061197937 0.12109375 -0.59766698 0
-0.061197937 0.12224177 -0.59869796 0
-0.05859375 0.12109375 -0.59719151 0
-0.05859375 0.12275875 -0.59869796 0
-0.055989623 0.12109375 -0.59673309 0
-0.055989623 0.12312363 -0.59869796 0
-0.053539548 0.12109375 -0.59609377 0
-0.053385437 0.12115651 -0.59609377 0
-0.05078125 0.12208191 -0.59609377 0
-0.048177123 0.12251832 -0.59609377 0
-0.045572937 0.12274728 -0.59609377 0
-0.04296875 0.12307588 -0.59609377 0
-0.079965122 0.11848962 -0.59869796 0
-0.079427123 0.11848962 -0.59861642 0
-0.079427123 0.11857 -0.59869796 0
-0.076822937 0.11848962 -0.59800476 0
-0.076822937 0.11931455 -0.59869796 0
-0.07421875 0.11848962 -0.59802973 0
-0.07421875 0.11930881 -0.59869796 0
-0.071614623 0.11848962 -0.59768546 0
-0.071614623 0.12019834 -0.59869796 0
-0.069010437 0.11848962 -0.59687632 0
-0.06640625 0.11848962 -0.59676933 0
-0.063802123 0.11848962 -0.596138 0
-0.063574284 0.11848962 -0.59609377 0
-0.061197937 0.11899494 -0.59609377 0
-0.05859375 0.11958417 -0.59609377 0
-0.055989623 0.1201684 -0.59609377 0
-0.091016516 0.11588544 -0.59869796 0
-0.08984375 0.11588544 -0.59857678 0
-0.08984375 0.11603981 -0.59869796 0
-0.087239623 0.11588544 -0.59822732 0
-0.087239623 0.1164687 -0.59869796 0
-0.084635437 0.11588544 -0.59781522 0
-0.084635437 0.11696739 -0.59869796 0
-0.08203125 0.11588544 -0.59704089 0
-0.08203125 0.11811552 -0.59869796 0
-0.079427123 0.11588544 -0.5966689 0
-0.076822937 0.11588544 -0.59620774 0
-0.075327463 0.11588544 -0.59609377 0
-0.07421875 0.11600621 -0.59609377 0
-0.071614623 0.11641648 -0.59609377 0
-0.069010437 0.11729668 -0.59609377 0
-0.06640625 0.11746373 -0.59609377 0
-0.063802123 0.11842309 -0.59609377 0
-0.10158306 0.11328125 -0.59869796 0
-0.10026044 0.11328125 -0.59849161 0
-0.10026044 0.11348583 -0.59869796 0
-0.09765625 0.11328125 -0.59831929 0
-0.09765625 0.11392651 -0.59869796 0
-0.095052123 0.11328125 -0.59824377 0
-0.095052123 0.1142598 -0.59869796 0
-0.092447937 0.11328125 -0.59808779 0
-0.092447937 0.11523034 -0.59869796 0
-0.08984375 0.11328125 -0.59759462 0
-0.087239623 0.11328125 -0.59724545 0
-0.084635437 0.11328125 -0.59666407 0
-0.082859211 0.11328125 -0.59609377 0
-0.08203125 0.11378156 -0.59609377 0
-0.079427123 0.11489151 -0.59609377 0
-0.076822937 0.11566917 -0.59609377 0
-0.10998493 0.11067712 -0.59869796 0
-0.10807294 0.11067712 -0.59813899 0
-0.10807294 0.11142835 -0.59869796 0
-0.10546875 0.11067712 -0.59772331 0
-0.10546875 0.11203101 -0.59869796 0
-0.10286462 0.11067712 -0.59700978 0
-0.10286462 0.11305639 -0.59869796 0
-0.10026044 0.11067712 -0.59665889 0
-0.09765625 0.11067712 -0.59655535 0
-0.095052123 0.11067712 -0.59660763 0
-0.092447937 0.11067712 -0.5963279 0
-0.090999544 0.11067712 -0.59609377 0
-0.08984375 0.111 -0.59609377 0
-0.087239623 0.11166569 -0.59609377 0
-0.084635437 0.11245008 -0.59609377 0
-0.11999772 0.10807294 -0.59869796 0
-0.11848962 0.10807294 -0.59846455 0
-0.11848962 0.10835507 -0.59869796 0
-0.11588544 0.10807294 -0.59812742 0
-0.11588544 0.10899223 -0.59869796 0
-0.11328125 0.10807294 -0.59728587 0
-0.11328125 0.1098875 -0.59869796 0
-0.11067712 0.10807294 -0.59700882 0
-0.11067712 0.11035263 -0.59869796 0
-0.10807294 0.10807294 -0.59627247 0
-0.10556702 0.10807294 -0.59609377 0
-0.10546875 0.10808212 -0.59609377 0
-0.10286462 0.10909084 -0.59609377 0
-0.10026044 0.10980593 -0.59609377 0
-0.09765625 0.1100466 -0.59609377 0
-0.095052123 0.10997763 -0.59609377 0
-0.092447937 0.11039648 -0.59609377 0
-0.1363177 0.10546875 -0.59869796 0
-0.13411462 0.10546875 -0.59825456 0
-0.13411462 0.10602644 -0.59869796 0
-0.13151044 0.10546875 -0.59779453 0
-0.13151044 0.10659448 -0.59869796 0
-0.12890625 0.10546875 -0.59787261 0
-0.12890625 0.10650761 -0.59869796 0
-0.12630212 0.10546875 -0.59782159 0
-0.12630212 0.10683293 -0.59869796 0
-0.12369794 0.10546875 -0.59746253 0
-0.12369794 0.10718048 -0.59869796 0
-0.12109375 0.10546875 -0.59703958 0
-0.12109375 0.10786694 -0.59869796 0
-0.11848962 0.10546875 -0.59647334 0
-0.11588544 0.10546875 -0.59617311 0
-0.11549566 0.10546875 -0.59609377 0
-0.11328125 0.10627332 -0.59609377 0
-0.11067712 0.10697371 -0.59609377 0
-0.10807294 0.10776335 -0.59609377 0
-0.15194458 0.10286462 -0.59869796 0
-0.14973962 0.10286462 -0.59794086 0
-0.14973962 0.10368415 -0.59869796 0
-0.14713544 0.10286462 -0.59788257 0
-0.14713544 0.10456704 -0.59869796 0
-0.14453125 0.10286462 -0.59762609 0
-0.14453125 0.10480347 -0.59869796 0
-0.14192712 0.10286462 -0.59808344 0
-0.14192712 0.10404474 -0.59869796 0
-0.13932294 0.10286462 -0.59803021 0
-0.13932294 0.10419912 -0.59869796 0
-0.13671875 0.10286462 -0.5974949 0
-0.13671875 0.10527468 -0.59869796 0
-0.13411462 0.10286462 -0.59684706 0
-0.13151044 0.10286462 -0.59610659 0
-0.13145047 0.10286462 -0.59609377 0
-0.12890625 0.10342851 -0.59609377 0
-0.12630212 0.10328422 -0.59609377 0
-0.12369794 0.10360696 -0.59609377 0
-0.12109375 0.10425896 -0.59609377 0
-0.11848962 0.10483588 -0.59609377 0
-0.11588544 0.10536159 -0.59609377 0
-0.16569072 0.10026044 -0.59869796 0
-0.16536462 0.10026044 -0.59864396 0
-0.16536462 0.10031128 -0.59869796 0
-0.16276044 0.10026044 -0.59832132 0
-0.16276044 0.1006491 -0.59869796 0
-0.16015625 0.10026044 -0.59806567 0
-0.16015625 0.10085984 -0.59869796 0
-0.15755212 0.10026044 -0.59739393 0
-0.15755212 0.10156564 -0.59869796 0
-0.15494794 0.10026044 -0.59734344 0
-0.15494794 0.10169346 -0.59869796 0
-0.15234375 0.10026044 -0.59728336 0
-0.15234375 0.10266425 -0.59869796 0
-0.14973962 0.10026044 -0.59672666 0
-0.14713544 0.10026044 -0.59661621 0
-0.14453125 0.10026044 -0.59654009 0
-0.14192712 0.10026044 -0.59652901 0
-0.13932294 0.10026044 -0.59638149 0
-0.13778357 0.10026044 -0.59609377 0
-0.13671875 0.10063528 -0.59609377 0
-0.13411462 0.10158441 -0.59609377 0
-0.13151044 0.10284299 -0.59609377 0
-0.17735413 0.09765625 -0.59869796 0
-0.17578125 0.09765625 -0.59839952 0
-0.17578125 0.09798716 -0.59869796 0
-0.17317712 0.09765625 -0.59837765 0
-0.17317712 0.098029964 -0.59869796 0
-0.17057294 0.09765625 -0.59791321 0
-0.17057294 0.098786324 -0.59869796 0
-0.16796875 0.09765625 -0.59722352 0
-0.16796875 0.099675596 -0.59869796 0
-0.16536462 0.09765625 -0.59712452 0
-0.16276044 0.09765625 -0.59644413 0
-0.16015625 0.09765625 -0.59647167 0
-0.1592095 0.09765625 -0.59609377 0
-0.15755212 0.098455422 -0.59609377 0
-0.15494794 0.098400787 -0.59609377 0
-0.15234375 0.098631926 -0.59609377 0
-0.14973962 0.099197462 -0.59609377 0
-0.14713544 0.099448249 -0.59609377 0
-0.14453125 0.099544637 -0.59609377 0
-0.14192712 0.099685781 -0.59609377 0
-0.13932294 0.099872217 -0.59609377 0
-0.19672781 0.095052123 -0.59869796 0
-0.19661462 0.095052123 -0.59865582 0
-0.19661462 0.09510643 -0.59869796 0
-0.19401044 0.095052123 -0.5982638 0
-0.19401044 0.095491022 -0.59869796 0
-0.19140625 0.095052123 -0.59772795 0
-0.19140625 0.096308291 -0.59869796 0
-0.18880212 0.095052123 -0.5971365 0
-0.18880212 0.096989639 -0.59869796 0
-0.18619794 0.095052123 -0.59705752 0
-0.18619794 0.096726745 -0.59869796 0
-0.18359375 0.095052123 -0.59719914 0
-0.18359375 0.096513681 -0.59869796 0
-0.18098962 0.095052123 -0.59677082 0
-0.18098962 0.09690655 -0.59869796 0
-0.17838544 0.095052123 -0.59663147 0
-0.17838544 0.097433776 -0.59869796 0
-0.17578125 0.095052123 -0.59650165 0
-0.17317712 0.095052123 -0.59647667 0
-0.17136449 0.095052123 -0.59609377 0
-0.17057294 0.095321536 -0.59609377 0
-0.16796875 0.095942095 -0.59609377 0
-0.16536462 0.096179739 -0.59609377 0
-0.16276044 0.097009882 -0.59609377 0
-0.16015625 0.097042918 -0.59609377 0
-0.21306211 0.092447937 -0.59869796 0
-0.21223962 0.092447937 -0.59840983 0
-0.21223962 0.092799813 -0.59869796 0
-0.20963544 0.092447937 -0.59781551 0
-0.20963544 0.093614899 -0.59869796 0
-0.20703125 0.092447937 -0.59711796 0
-0.20703125 0.094719663 -0.59869796 0
-0.20442712 0.092447937 -0.59734261 0
-0.20442712 0.093456186 -0.59869796 0
-0.20182294 0.092447937 -0.59702122 0
-0.20182294 0.09439832 -0.59869796 0
-0.19921875 0.092447937 -0.59678072 0
-0.19921875 0.093849741 -0.59869796 0
-0.19661462 0.092447937 -0.59698552 0
-0.19401044 0.092447937 -0.59651697 0
-0.19140625 0.092447937 -0.59678817 0
-0.18880212 0.092447937 -0.59610605 0
-0.18872304 0.092447937 -0.59609377 0
-0.18619794 0.093147352 -0.59609377 0
-0.18359375 0.093039125 -0.59609377 0
-0.18098962 0.093897387 -0.59609377 0
-0.17838544 0.093994148 -0.59609377 0
-0.17578125 0.094422475 -0.59609377 0
-0.17317712 0.094293587 -0.59609377 0
-0.22987382 0.08984375 -0.59869796 0
-0.22786462 0.08984375 -0.59822005 0
-0.22786462 0.090690047 -0.59869796 0
-0.22526044 0.08984375 -0.59813547 0
-0.22526044 0.090479046 -0.59869796 0
-0.22265625 0.08984375 -0.59808302 0
-0.22265625 0.091154478 -0.59869796 0
-0.22005212 0.08984375 -0.59799653 0
-0.22005212 0.091038562 -0.59869796 0
-0.21744794 0.08984375 -0.59768838 0
-0.21744794 0.091633692 -0.59869796 0
-0.21484375 0.08984375 -0.59701782 0
-0.21484375 0.091848366 -0.59869796 0
-0.21223962 0.08984375 -0.5972085 0
-0.20963544 0.08984375 -0.59675938 0
-0.20703125 0.08984375 -0.59615946 0
-0.20670895 0.08984375 -0.59609377 0
-0.20442712 0.090738282 -0.59609377 0
-0.20182294 0.091016784 -0.59609377 0
-0.19921875 0.091482617 -0.59609377 0
-0.19661462 0.091244429 -0.59609377 0
-0.19401044 0.091877475 -0.59609377 0
-0.19140625 0.091448955 -0.59609377 0
-0.18880212 0.092416897 -0.59609377 0
-0.25464571 0.087239623 -0.59869796 0
-0.25390625 0.087239623 -0.59849781 0
-0.25390625 0.08746355 -0.59869796 0
-0.25254768 0.087239623 -0.59869796 0
-0.25045729 0.087239623 -0.59869796 0
-0.24869794 0.087239623 -0.59828269 0
-0.24869794 0.087659173 -0.59869796 0
-0.24609375 0.087239623 -0.59761345 0
-0.24609375 0.088536039 -0.59869796 0
-0.24348962 0.087239623 -0.5973624 0
-0.24348962 0.088756889 -0.59869796 0
-0.24088544 0.087239623 -0.59718537 0
-0.24088544 0.089664683 -0.59869796 0
-0.23828125 0.087239623 -0.59744829 0
-0.23828125 0.089525945 -0.59869796 0
-0.23567712 0.087239623 -0.59744811 0
-0.23567712 0.08891432 -0.59869796 0
-0.23307294 0.087239623 -0.59724629 0
-0.23307294 0.089417256 -0.59869796 0
-0.23046875 0.087239623 -0.59696776 0
-0.23046875 0.089599177 -0.59869796 0
-0.22786462 0.087239623 -0.59685063 0
-0.22526044 0.087239623 -0.59651518 0
-0.22265625 0.087239623 -0.59662485 0
-0.22051159 0.087239623 -0.59609377 0
-0.22005212 0.087394029 -0.59609377 0
-0.21744794 0.087397888 -0.59609377 0
-0.21484375 0.088411205 -0.59609377 0
-0.21223962 0.088405043 -0.59609377 0
-0.20963544 0.088749342 -0.59609377 0
-0.20703125 0.089704596 -0.59609377 0
-0.26731479 0.084635437 -0.59869796 0
-0.26692712 0.084635437 -0.59858197 0
-0.26692712 0.084831618 -0.59869796 0
-0.26432294 0.084635437 -0.598409 0
-0.26432294 0.085026242 -0.59869796 0
-0.26171875 0.084635437 -0.59780157 0
-0.26171875 0.086132005 -0.59869796 0
-0.25911462 0.084635437 -0.59737152 0
-0.25911462 0.086300291 -0.59869796 0
-0.25651044 0.084635437 -0.59718567 0
-0.25651044 0.086593181 -0.59869796 0
-0.25390625 0.084635437 -0.59686208 0
-0.25130212 0.084635437 -0.59670734 0
-0.25130212 0.087009601 -0.59869796 0
-0.24869794 0.084635437 -0.59642404 0
-0.24742946 0.084635437 -0.59609377 0
-0.24609375 0.08520405 -0.59609377 0
-0.24348962 0.08549384 -0.59609377 0
-0.24088544 0.085852422 -0.59609377 0
-0.23828125 0.085580461 -0.59609377 0
-0.23567712 0.085624203 -0.59609377 0
-0.23307294 0.085790724 -0.59609377 0
-0.23046875 0.086213827 -0.59609377 0
-0.22786462 0.086083785 -0.59609377 0
-0.22526044 0.086597323 -0.59609377 0
-0.22265625 0.086413532 -0.59609377 0
-0.28814256 0.08203125 -0.59869796 0
-0.28776044 0.08203125 -0.59852517 0
-0.28776044 0.082209975 -0.59869796 0
-0.28515625 0.08203125 -0.59800828 0
-0.28515625 0.082700007 -0.59869796 0
-0.28255212 0.08203125 -0.59810734 0
-0.28255212 0.083383866 -0.59869796 0
-0.27994794 0.08203125 -0.59772098 0
-0.27994794 0.083530195 -0.59869796 0
-0.27734375 0.08203125 -0.59730905 0
-0.27734375 0.084480315 -0.59869796 0
-0.27473962 0.08203125 -0.59683347 0
-0.27473962 0.084002212 -0.59869796 0
-0.27213544 0.08203125 -0.59714401 0
-0.27213544 0.083645955 -0.59869796 0
-0.26953125 0.08203125 -0.59735727 0
-0.26953125 0.083623953 -0.59869796 0
-0.26692712 0.08203125 -0.59722424 0
-0.26432294 0.08203125 -0.59646493 0
-0.26171875 0.08203125 -0.59638751 0
-0.25911462 0.08203125 -0.5963378 0
-0.25784057 0.08203125 -0.59609377 0
-0.25651044 0.082471214 -0.59609377 0
-0.25390625 0.08343529 -0.59609377 0
-0.25130212 0.083823338 -0.59609377 0
-0.24869794 0.084093496 -0.59609377 0
-0.29545334 0.079427123 -0.59869796 0
-0.29296875 0.079427123 -0.59788454 0
-0.29296875 0.080458656 -0.59869796 0
-0.29036462 0.079427123 -0.59764552 0
-0.29036462 0.080718845 -0.59869796 0
-0.28776044 0.079427123 -0.59703219 0
-0.28515625 0.079427123 -0.5968504 0
-0.28255212 0.079427123 -0.59719896 0
-0.27994794 0.079427123 -0.59696269 0
-0.27734375 0.079427123 -0.59627306 0
-0.27672815 0.079427123 -0.59609377 0
-0.27473962 0.080643266 -0.59609377 0
-0.27213544 0.080914974 -0.59609377 0
-0.26953125 0.080712833 -0.59609377 0
-0.26692712 0.080664523 -0.59609377 0
-0.26432294 0.081478938 -0.59609377 0
-0.26171875 0.081613645 -0.59609377 0
-0.25911462 0.081554413 -0.59609377 0
-0.29952079 0.076822937 -0.59869796 0
-0.29817712 0.076822937 -0.59829795 0
-0.29817712 0.07767047 -0.59869796 0
-0.29557294 0.076822937 -0.59753704 0
-0.29557294 0.079345979 -0.59869796 0
-0.29296875 0.076822937 -0.59680271 0
-0.29036462 0.076822937 -0.5960958 0
-0.29035503 0.076822937 -0.59609377 0
-0.28776044 0.077674389 -0.59609377 0
-0.28515625 0.078368746 -0.59609377 0
-0.28255212 0.078130372 -0.59609377 0
-0.27994794 0.078118481 -0.59609377 0
-0.27734375 0.079097234 -0.59609377 0
-0.31295693 0.07421875 -0.59869796 0
-0.31119794 0.07421875 -0.59810722 0
-0.31119794 0.075042717 -0.59869796 0
-0.30859375 0.07421875 -0.5974564 0
-0.30859375 0.075776204 -0.59869796 0
-0.30598962 0.07421875 -0.59767836 0
-0.30598962 0.075461023 -0.59869796 0
-0.30338544 0.07421875 -0.59704596 0
-0.30338544 0.076436989 -0.59869796 0
-0.30078125 0.07421875 -0.59623802 0
-0.30078125 0.076423861 -0.59869796 0
-0.29817712 0.07421875 -0.59655499 0
-0.29664749 0.07421875 -0.59609377 0
-0.29557294 0.074695982 -0.59609377 0
-0.29296875 0.07532236 -0.59609377 0
-0.29036462 0.076819561 -0.59609377 0
-0.32326332 0.071614623 -0.59869796 0
-0.32161462 0.071614623 -0.59802961 0
-0.32161462 0.072757728 -0.59869796 0
-0.31901044 0.071614623 -0.59818882 0
-0.31901044 0.072204977 -0.59869796 0
-0.31640625 0.071614623 -0.59823298 0
-0.31640625 0.072457656 -0.59869796 0
-0.31380212 0.071614623 -0.59751922 0
-0.31380212 0.073605068 -0.59869796 0
-0.31119794 0.071614623 -0.59675175 0
-0.30859375 0.071614623 -0.59615701 0
-0.30819312 0.071614623 -0.59609377 0
-0.30598962 0.072095126 -0.59609377 0
-0.30338544 0.072640739 -0.59609377 0
-0.30078125 0.074008591 -0.59609377 0
-0.29817712 0.073633708 -0.59609377 0
-0.33089969 0.069010437 -0.59869796 0
-0.32942712 0.069010437 -0.59824234 0
-0.32942712 0.069450453 -0.59869796 0
-0.32682294 0.069010437 -0.59826756 0
-0.32682294 0.069505759 -0.59869796 0
-0.32421875 0.069010437 -0.59726888 0
-0.32421875 0.071032077 -0.59869796 0
-0.32161462 0.069010437 -0.59673494 0
-0.31901044 0.069010437 -0.59666538 0
-0.31650886 0.069010437 -0.59609377 0
-0.31640625 0.069044083 -0.59609377 0
-0.31380212 0.069753759 -0.59609377 0
-0.31119794 0.070542604 -0.59609377 0
-0.30859375 0.071471475 -0.59609377 0
-0.33535612 0.06640625 -0.59869796 0
-0.33463544 0.06640625 -0.59845448 0
-0.33463544 0.066738449 -0.59869796 0
-0.33203125 0.06640625 -0.59759974 0
-0.33203125 0.068449929 -0.59869796 0
-0.32942712 0.06640625 -0.59648573 0
-0.32716027 0.06640625 -0.59609377 0
-0.32682294 0.066490903 -0.59609377 0
-0.32464629 0.06640625 -0.59609377 0
-0.32421875 0.06640625 -0.59610724 0
-0.32417405 0.06640625 -0.59609377 0
-0.32161462 0.067815393 -0.59609377 0
-0.31901044 0.068014249 -0.59609377 0
-0.33723962 0.06520173 -0.59869796 0
-0.33723962 0.063802123 -0.59792197 0
-0.33463544 0.063802123 -0.59688181 0
-0.33203125 0.063802123 -0.59620661 0
-0.33154473 0.063802123 -0.59609377 0
-0.32942712 0.065224081 -0.59609377 0
-0.32421875 0.066385068 -0.59609377 0
-0.33723962 0.061447874 -0.59609377 0
-0.33463544 0.061887499 -0.59609377 0
-0.33203125 0.063512355 -0.59609377 0
0.1598869 0.18098962 -0.60911459 0
0.16015625 0.18098962 -0.60901207 0
0.16015625 0.18108152 -0.60911459 0
0.16276038 0.18098962 -0.60865772 0
0.16276038 0.18138587 -0.60911459 0
0.16536456 0.18098962 -0.6086778 0
0.16536456 0.18142593 -0.60911459 0
0.16796875 0.18098962 -0.60910106 0
0.16796875 0.1810094 -0.60911459 0
0.17057288 0.18098962 -0.60895097 0
0.17057288 0.18125288 -0.60911459 0
0.17233862 0.18098962 -0.60911459 0
0.17367528 0.18098962 -0.60911459 0
0.17578125 0.18098962 -0.60871512 0
0.17578125 0.18204261 -0.60911459 0
0.17838538 0.18098962 -0.60841495 0
0.17838538 0.1823245 -0.60911459 0
0.18098962 0.18098962 -0.608235 0
0.18098962 0.18281044 -0.60911459 0
0.18359375 0.18098962 -0.60815936 0
0.18359375 0.18258852 -0.60911459 0
0.18619788 0.18098962 -0.60780329 0
0.18619788 0.18305501 -0.60911459 0
0.18880212 0.18098962 -0.60747921 0
0.18880212 0.18354319 -0.60911459 0
0.19140625 0.18098962 -0.60747212 0
0.19140625 0.18304706 -0.60911459 0
0.15477885 0.17838544 -0.60911459 0
0.15494788 0.17838544 -0.60903507 0
0.15494788 0.17852175 -0.60911459 0
0.15755206 0.17838544 -0.60864943 0
0.15755206 0.17928007 -0.60911459 0
0.16015625 0.17838544 -0.60818142 0
0.16276038 0.17838544 -0.60803652 0
0.16536456 0.17838544 -0.60783619 0
0.16796875 0.17838544 -0.60794181 0
0.17057288 0.17838544 -0.60791105 0
0.17317712 0.17838544 -0.60790241 0
0.17317712 0.18083601 -0.60911459 0
0.17578125 0.17838544 -0.60743415 0
0.17838538 0.17838544 -0.60713953 0
0.18098962 0.17838544 -0.60655826 0
0.18359375 0.17838544 -0.60696554 0
0.18619788 0.17838544 -0.60673785 0
0.18880212 0.17838544 -0.60668516 0
0.19140625 0.17838544 -0.60675365 0
0.13782565 0.17578125 -0.60911459 0
0.13932288 0.17578125 -0.60874337 0
0.13932288 0.17632385 -0.60911459 0
0.14192706 0.17578125 -0.60839832 0
0.14192706 0.17695449 -0.60911459 0
0.14453125 0.17578125 -0.60812223 0
0.14453125 0.17709816 -0.60911459 0
0.14713538 0.17578125 -0.60801136 0
0.14713538 0.17705914 -0.60911459 0
0.14973956 0.17578125 -0.60823619 0
0.14973956 0.17691903 -0.60911459 0
0.15234375 0.17578125 -0.60833567 0
0.15234375 0.17676651 -0.60911459 0
0.15494788 0.17578125 -0.60782504 0
0.15755206 0.17578125 -0.60737801 0
0.16015625 0.17578125 -0.60693538 0
0.16276038 0.17578125 -0.60699207 0
0.16536456 0.17578125 -0.60657698 0
0.16615866 0.17578125 -0.60651046 0
0.16796875 0.17599353 -0.60651046 0
0.17057288 0.17608422 -0.60651046 0
0.17295966 0.17578125 -0.60651046 0
0.17317712 0.17578125 -0.606525 0
0.17352605 0.17578125 -0.60651046 0
0.17578125 0.17611383 -0.60651046 0
0.17838538 0.1768084 -0.60651046 0
0.18098962 0.17829673 -0.60651046 0
0.18359375 0.17756709 -0.60651046 0
0.18619788 0.17749947 -0.60651046 0
0.18880212 0.17813838 -0.60651046 0
0.13460305 0.17317712 -0.60911459 0
0.13671875 0.17317712 -0.60828143 0
0.13671875 0.17519656 -0.60911459 0
0.13932288 0.17317712 -0.60770273 0
0.14192706 0.17317712 -0.60721546 0
0.14453125 0.17317712 -0.60674822 0
0.14663917 0.17317712 -0.60651046 0
0.14713538 0.17326245 -0.60651046 0
0.147346 0.17317712 -0.60651046 0
0.14973956 0.17317712 -0.6070866 0
0.15234375 0.17317712 -0.60730374 0
0.15494788 0.17317712 -0.60721451 0
0.15755206 0.17317712 -0.60671413 0
0.15871361 0.17317712 -0.60651046 0
0.16015625 0.17419548 -0.60651046 0
0.16276038 0.17356138 -0.60651046 0
0.16536456 0.17537464 -0.60651046 0
0.17317712 0.17576088 -0.60651046 0
0.11915114 0.17057294 -0.60911459 0
0.12109375 0.17057294 -0.60870755 0
0.12109375 0.17159832 -0.60911459 0
0.12369788 0.17057294 -0.60844165 0
0.12369788 0.17195834 -0.60911459 0
0.12630206 0.17057294 -0.6082347 0
0.12630206 0.17200486 -0.60911459 0
0.12890625 0.17057294 -0.60809135 0
0.12890625 0.17221247 -0.60911459 0
0.13151038 0.17057294 -0.60793841 0
0.13151038 0.17254652 -0.60911459 0
0.13411456 0.17057294 -0.60740805 0
0.13411456 0.17290843 -0.60911459 0
0.13671875 0.17057294 -0.60676342 0
0.13775633 0.17057294 -0.60651046 0
0.13932288 0.17122303 -0.60651046 0
0.14192706 0.17149463 -0.60651046 0
0.14453125 0.17263533 -0.60651046 0
0.14973956 0.17233267 -0.60651046 0
0.15234375 0.17214312 -0.60651046 0
0.15494788 0.17231134 -0.60651046 0
0.15755206 0.17300457 -0.60651046 0
0.0933199 0.16796875 -0.60911459 0
0.095052063 0.16796875 -0.60861999 0
0.095052063 0.16870046 -0.60911459 0
0.09765625 0.16796875 -0.60837018 0
0.09765625 0.16906951 -0.60911459 0
0.10026038 0.16796875 -0.60821617 0
0.10026038 0.16935857 -0.60911459 0
0.10286456 0.16796875 -0.60814804 0
0.10286456 0.16939488 -0.60911459 0
0.10546875 0.16796875 -0.60799766 0
0.10546875 0.16979326 -0.60911459 0
0.10807288 0.16796875 -0.60788971 0
0.10807288 0.17001252 -0.60911459 0
0.11067706 0.16796875 -0.60785669 0
0.11067706 0.17040661 -0.60911459 0
0.11328125 0.16796875 -0.60783333 0
0.11328125 0.17022115 -0.60911459 0
0.11588538 0.16796875 -0.60799479 0
0.11588538 0.16998042 -0.60911459 0
0.11848956 0.16796875 -0.60745668 0
0.11848956 0.17041124 -0.60911459 0
0.12109375 0.16796875 -0.60709035 0
0.12355184 0.16796875 -0.60651046 0
0.12369788 0.16802093 -0.60651046 0
0.12630206 0.16803396 -0.60651046 0
0.12890625 0.16814934 -0.60651046 0
0.13151038 0.16894379 -0.60651046 0
0.13411456 0.16962937 -0.60651046 0
0.13671875 0.17030716 -0.60651046 0
0.077728286 0.16536462 -0.60911459 0
0.079427063 0.16536462 -0.60879529 0
0.079427063 0.16604376 -0.60911459 0
0.08203125 0.16536462 -0.60831124 0
0.08203125 0.16657512 -0.60911459 0
0.084635377 0.16536462 -0.6081382 0
0.084635377 0.16672444 -0.60911459 0
0.087239563 0.16536462 -0.60795373 0
0.087239563 0.16719945 -0.60911459 0
0.08984375 0.16536462 -0.60776174 0
0.08984375 0.1676615 -0.60911459 0
0.092447877 0.16536462 -0.60768002 0
0.092447877 0.16753384 -0.60911459 0
0.095052063 0.16536462 -0.60712904 0
0.09765625 0.16536462 -0.60679704 0
0.10026038 0.16536462 -0.60706139 0
0.10286456 0.16536462 -0.60716611 0
0.10546875 0.16536462 -0.60715735 0
0.10807288 0.16536462 -0.60686171 0
0.10964794 0.16536462 -0.60651046 0
0.11067706 0.16573654 -0.60651046 0
0.11328125 0.16669476 -0.60651046 0
0.11588538 0.16658348 -0.60651046 0
0.11848956 0.16679052 -0.60651046 0
0.12109375 0.16718961 -0.60651046 0
0.060741097 0.16276044 -0.60911459 0
0.061197877 0.16276044 -0.60903943 0
0.061197877 0.16289462 -0.60911459 0
0.063802063 0.16276044 -0.60864973 0
0.063802063 0.16343056 -0.60911459 0
0.06640625 0.16276044 -0.6084733 0
0.06640625 0.16367467 -0.60911459 0
0.069010377 0.16276044 -0.60815948 0
0.069010377 0.16412348 -0.60911459 0
0.071614563 0.16276044 -0.60805833 0
0.071614563 0.1644351 -0.60911459 0
0.07421875 0.16276044 -0.60767555 0
0.07421875 0.16500632 -0.60911459 0
0.076822877 0.16276044 -0.60779548 0
0.076822877 0.16507857 -0.60911459 0
0.079427063 0.16276044 -0.60739571 0
0.08203125 0.16276044 -0.60697591 0
0.084635377 0.16276044 -0.60662234 0
0.085837975 0.16276044 -0.60651046 0
0.087239563 0.16299154 -0.60651046 0
0.08984375 0.16288859 -0.60651046 0
0.092447877 0.16297308 -0.60651046 0
0.095052063 0.16372679 -0.60651046 0
0.09765625 0.16468002 -0.60651046 0
0.10026038 0.16407146 -0.60651046 0
0.10286456 0.16343445 -0.60651046 0
0.10546875 0.1641669 -0.60651046 0
0.10807288 0.16477709 -0.60651046 0
0.03633178 0.16015625 -0.60911459 0
0.037760377 0.16015625 -0.60877097 0
0.037760377 0.16063933 -0.60911459 0
0.040364563 0.16015625 -0.60850477 0
0.040364563 0.16102485 -0.60911459 0
0.04296875 0.16015625 -0.60885262 0
0.04296875 0.1605442 -0.60911459 0
0.045572877 0.16015625 -0.60891902 0
0.045572877 0.16041489 -0.60911459 0
0.048177063 0.16015625 -0.608482 0
0.048177063 0.16094008 -0.60911459 0
0.05078125 0.16015625 -0.60809398 0
0.05078125 0.16136941 -0.60911459 0
0.053385377 0.16015625 -0.60795295 0
0.053385377 0.16183834 -0.60911459 0
0.055989563 0.16015625 -0.60790241 0
0.055989563 0.16208194 -0.60911459 0
0.05859375 0.16015625 -0.60791057 0
0.05859375 0.16213919 -0.60911459 0
0.061197877 0.16015625 -0.60751903 0
0.063802063 0.16015625 -0.60715401 0
0.06640625 0.16015625 -0.60693812 0
0.069010377 0.16015625 -0.60656494 0
0.069425672 0.16015625 -0.60651046 0
0.071614563 0.1605565 -0.60651046 0
0.07421875 0.16111951 -0.60651046 0
0.076822877 0.16045429 -0.60651046 0
0.079427063 0.16117302 -0.60651046 0
0.08203125 0.16194314 -0.60651046 0
0.084635377 0.16255541 -0.60651046 0
0.026605928 0.15755212 -0.60911459 0
0.02734375 0.15755212 -0.60895711 0
0.02734375 0.15778115 -0.60911459 0
0.029947877 0.15755212 -0.60844249 0
0.029947877 0.1584703 -0.60911459 0
0.032552063 0.15755212 -0.60820484 0
0.032552063 0.1588992 -0.60911459 0
0.03515625 0.15755212 -0.60786742 0
0.03515625 0.15965518 -0.60911459 0
0.037760377 0.15755212 -0.60755068 0
0.040364563 0.15755212 -0.60714948 0
0.04296875 0.15755212 -0.60728139 0
0.045572877 0.15755212 -0.60699701 0
0.048177063 0.15755212 -0.60676062 0
0.05078125 0.15755212 -0.60669512 0
0.053385377 0.15755212 -0.60657251 0
0.054691944 0.15755212 -0.60651046 0
0.055989563 0.15766035 -0.60651046 0
0.058441557 0.15755212 -0.60651046 0
0.05859375 0.15755212 -0.6065141 0
0.058615778 0.15755212 -0.60651046 0
0.061197877 0.15836088 -0.60651046 0
0.063802063 0.15883382 -0.60651046 0
0.06640625 0.15933838 -0.60651046 0
0.069010377 0.16006742 -0.60651046 0
0.016747983 0.15494794 -0.60911459 0
0.016927063 0.15494794 -0.60907167 0
0.016927063 0.15502556 -0.60911459 0
0.01953125 0.15494794 -0.60873073 0
0.01953125 0.15559739 -0.60911459 0
0.022135377 0.15494794 -0.60836399 0
0.022135377 0.15623298 -0.60911459 0
0.024739563 0.15494794 -0.60803837 0
0.024739563 0.15684542 -0.60911459 0
0.02734375 0.15494794 -0.60784835 0
0.029947877 0.15494794 -0.60724765 0
0.032552063 0.15494794 -0.60703361 0
0.03515625 0.15494794 -0.60684246 0
0.037760377 0.15494794 -0.60666448 0
0.038524888 0.15494794 -0.60651046 0
0.040364563 0.15591566 -0.60651046 0
0.04296875 0.15606683 -0.60651046 0
0.045572877 0.1566477 -0.60651046 0
0.048177063 0.15699929 -0.60651046 0
0.05078125 0.15704888 -0.60651046 0
0.053385377 0.15741609 -0.60651046 0
0.05859375 0.15754689 -0.60651046 0
0.0048360946 0.15234375 -0.60911459 0
0.0065103769 0.15234375 -0.6088587 0
0.0065103769 0.1527956 -0.60911459 0
0.0091145635 0.15234375 -0.60810161 0
0.0091145635 0.15351856 -0.60911459 0
0.01171875 0.15234375 -0.60767847 0
0.01171875 0.15401441 -0.60911459 0
0.014322877 0.15234375 -0.60736424 0
0.014322877 0.15428242 -0.60911459 0
0.016927063 0.15234375 -0.60735458 0
0.01953125 0.15234375 -0.60734761 0
0.022135377 0.15234375 -0.60692507 0
0.024739563 0.15234375 -0.60675621 0
0.02734375 0.15234375 -0.60657877 0
0.027646212 0.15234375 -0.60651046 0
0.029947877 0.15344025 -0.60651046 0
0.032552063 0.15401493 -0.60651046 0
0.03515625 0.15447445 -0.60651046 0
0.037760377 0.15471388 -0.60651046 0
-0.0075778505 0.14973962 -0.60911459 0
-0.0065104365 0.14973962 -0.60890919 0
-0.0065104365 0.1499919 -0.60911459 0
-0.00390625 0.14973962 -0.60865408 0
-0.00390625 0.15043409 -0.60911459 0
-0.0013021231 0.14973962 -0.60790026 0
-0.0013021231 0.15151002 -0.60911459 0
0.0013020635 0.14973962 -0.60773766 0
0.0013020635 0.15200067 -0.60911459 0
0.00390625 0.14973962 -0.60748619 0
0.00390625 0.1521614 -0.60911459 0
0.0065103769 0.14973962 -0.60740554 0
0.0091145635 0.14973962 -0.60706234 0
0.01171875 0.14973962 -0.60665953 0
0.012585299 0.14973962 -0.60651046 0
0.014322877 0.15045244 -0.60651046 0
0.016927063 0.15075521 -0.60651046 0
0.01953125 0.15101866 -0.60651046 0
0.022135377 0.15170187 -0.60651046 0
0.024739563 0.15197824 -0.60651046 0
0.02734375 0.15225804 -0.60651046 0
-0.018008174 0.14713544 -0.60911459 0
-0.016927123 0.14713544 -0.60875791 0
-0.016927123 0.1475594 -0.60911459 0
-0.014322937 0.14713544 -0.60883778 0
-0.014322937 0.14756773 -0.60911459 0
-0.01171875 0.14713544 -0.60791618 0
-0.01171875 0.14882283 -0.60911459 0
-0.0091146231 0.14713544 -0.60803366 0
-0.0091146231 0.14910915 -0.60911459 0
-0.0065104365 0.14713544 -0.60712022 0
-0.00390625 0.14713544 -0.60653138 0
-0.0038098008 0.14713544 -0.60651046 0
-0.0013021231 0.14782496 -0.60651046 0
0.0013020635 0.14810571 -0.60651046 0
0.00390625 0.14807995 -0.60651046 0
0.0065103769 0.14825363 -0.60651046 0
0.0091145635 0.14871436 -0.60651046 0
0.01171875 0.14952289 -0.60651046 0
-0.033687931 0.14453125 -0.60911459 0
-0.032552123 0.14453125 -0.60899228 0
-0.032552123 0.1447157 -0.60911459 0
-0.029947937 0.14453125 -0.60856217 0
-0.029947937 0.14530399 -0.60911459 0
-0.02734375 0.14453125 -0.60872352 0
-0.02734375 0.14508446 -0.60911459 0
-0.024739623 0.14453125 -0.60868007 0
-0.024739623 0.14528294 -0.60911459 0
-0.022135437 0.14453125 -0.6079607 0
-0.022135437 0.1459793 -0.60911459 0
-0.01953125 0.14453125 -0.60763979 0
-0.01953125 0.14650908 -0.60911459 0
-0.016927123 0.14453125 -0.60672081 0
-0.014322937 0.14453125 -0.60707676 0
-0.011736834 0.14453125 -0.60651046 0
-0.01171875 0.14454068 -0.60651046 0
-0.01146049 0.14453125 -0.60651046 0
-0.0091146231 0.14453125 -0.60654706 0
-0.0090094525 0.14453125 -0.60651046 0
-0.0065104365 0.1461852 -0.60651046 0
-0.00390625 0.14710668 -0.60651046 0
-0.040509585 0.14192712 -0.60911459 0
-0.040364623 0.14192712 -0.60909015 0
-0.040364623 0.14196894 -0.60911459 0
-0.037760437 0.14192712 -0.60871542 0
-0.037760437 0.14248319 -0.60911459 0
-0.03515625 0.14192712 -0.60795796 0
-0.03515625 0.14414994 -0.60911459 0
-0.032552123 0.14192712 -0.60741824 0
-0.029947937 0.14192712 -0.60665631 0
-0.02734375 0.14192712 -0.60677809 0
-0.024739623 0.14192712 -0.60683626 0
-0.023399848 0.14192712 -0.60651046 0
-0.022135437 0.14234421 -0.60651046 0
-0.01953125 0.14279342 -0.60651046 0
-0.016927123 0.14416309 -0.60651046 0
-0.014322937 0.14378832 -0.60651046 0
-0.0091146231 0.14449072 -0.60651046 0
-0.057813153 0.13932294 -0.60911459 0
-0.055989623 0.13932294 -0.60858583 0
-0.055989623 0.14002074 -0.60911459 0
-0.053385437 0.13932294 -0.60840672 0
-0.053385437 0.1403975 -0.60911459 0
-0.05078125 0.13932294 -0.60809892 0
-0.05078125 0.14070168 -0.60911459 0
-0.048177123 0.13932294 -0.60804516 0
-0.048177123 0.14084974 -0.60911459 0
-0.045572937 0.13932294 -0.60743368 0
-0.045572937 0.14140028 -0.60911459 0
-0.04296875 0.13932294 -0.60751045 0
-0.04296875 0.14142479 -0.60911459 0
-0.040364623 0.13932294 -0.60719007 0
-0.037760437 0.13932294 -0.60726434 0
-0.03515625 0.13932294 -0.6068331 0
-0.033932958 0.13932294 -0.60651046 0
-0.032552123 0.14011835 -0.60651046 0
-0.029947937 0.14164183 -0.60651046 0
-0.02734375 0.14159735 -0.60651046 0
-0.024739623 0.14157045 -0.60651046 0
-0.065137349 0.13671875 -0.60911459 0
-0.063802123 0.13671875 -0.60875225 0
-0.063802123 0.13713798 -0.60911459 0
-0.061197937 0.13671875 -0.60837859 0
